1594

0.1166 13.831  -6.346 -12.294
0.0372 14.803  -5.922 -12.430
0.0372 13.090  -5.668 -11.882
-0.6497 13.574  -6.609 -13.575
0.4215 14.005  -7.450 -13.812
0.0372 16.577  -5.439  -3.858
0.1166 16.039  -6.380  -3.605
0.0372 14.988  -6.037  -3.625
0.0372 16.353  -6.657  -2.591
-0.6497 16.249  -7.469  -4.564
0.4215 16.997  -8.089  -4.303
0.0372 16.495  -5.986 -20.049
0.1166 17.162  -5.162 -20.205
0.0372 16.704  -4.377 -19.622
0.0372 17.199  -4.978 -21.285
-0.6497 18.511  -5.391 -19.826
0.4215 18.665  -6.251 -19.424
0.0372 18.519 -11.836 -11.188
0.1166 17.624 -12.451 -11.511
0.0372 16.903 -12.570 -10.726
0.0372 17.930 -13.534 -11.741
-0.6497 17.078 -11.879 -12.676
0.4215 17.568 -12.254 -13.440
0.0372 6.509   8.408 -25.860
0.1166 5.763   7.829 -26.391
0.0372 6.413   7.237 -27.027
0.0372 5.032   8.429 -26.947
-0.6497 5.152   6.870 -25.530
0.4215 5.841   6.213 -25.254
0.0372 11.980   1.379 -28.134
0.1166 12.440   1.094 -27.145
0.0372 13.443   1.413 -27.226
0.0372 12.377   0.048 -27.101
-0.6497 11.702   1.703 -26.124
0.4215 10.909   1.139 -26.051
0.0372 14.956 -11.185 -10.081
0.1166 14.212 -12.059 -10.190
0.0372 14.771 -12.945 -10.277
0.0372 13.754 -11.889 -11.101
-0.6497 13.321 -12.181  -9.009
0.4215 13.809 -12.476  -8.220
0.0372 10.483 -14.895 -21.763
0.1166 9.756 -15.420 -21.223
0.0372 10.164 -15.568 -20.286
0.0372 9.622 -16.415 -21.610
-0.6497 8.626 -14.505 -20.948
0.4215 8.323 -14.106 -21.746
0.0372 7.426  -1.871 -26.779
0.1166 6.435  -1.482 -26.452
0.0372 5.918  -2.303 -25.977
0.0372 5.966  -1.042 -27.339
-0.6497 6.602  -0.419 -25.460
0.4215 5.720  -0.213 -25.182
0.0372 6.088  -1.175 -22.090
0.1166 5.357  -1.804 -22.550
0.0372 5.238  -1.609 -23.530
0.0372 4.438  -1.690 -22.052
-0.6497 5.807  -3.120 -22.497
0.4215 5.195  -3.610 -21.955
0.0372 10.842   5.234 -22.168
0.1166 11.856   5.342 -21.639
0.0372 11.656   5.947 -20.733
0.0372 12.549   5.948 -22.206
-0.6497 12.264   4.047 -21.325
0.4215 12.251   3.485 -22.108
0.0372 -9.380   4.821 -23.510
0.1166 -9.217   5.881 -23.313
0.0372 -9.403   6.037 -22.231
0.0372 -9.799   6.521 -24.025
-0.6497 -7.853   6.133 -23.532
0.4215 -7.689   7.118 -23.685
0.0372 4.391 -10.179 -23.980
0.1166 4.791 -11.175 -24.290
0.0372 5.283 -10.972 -25.243
0.0372 4.101 -12.021 -24.314
-0.6497 5.820 -11.440 -23.283
0.4215 5.357 -11.333 -22.414
0.0372 25.013  -7.104 -11.460
0.1166 25.251  -6.033 -11.738
0.0372 26.106  -6.086 -12.426
0.0372 25.621  -5.383 -10.905
-0.6497 24.241  -5.430 -12.466
0.4215 24.663  -4.583 -12.748
0.0372 12.464   0.652 -22.488
0.1166 13.018   1.391 -23.194
0.0372 13.369   0.985 -24.135
0.0372 13.857   1.839 -22.702
-0.6497 12.008   2.309 -23.567
0.4215 11.787   2.145 -24.526
0.0372 9.789  -4.152 -20.312
0.1166 8.993  -3.600 -20.800
0.0372 9.480  -2.942 -21.500
0.0372 8.379  -3.029 -20.113
-0.6497 8.144  -4.465 -21.558
0.4215 7.458  -3.988 -22.052
0.0372 8.475  -0.534 -21.197
0.1166 9.015  -0.235 -20.273
0.0372 9.065  -0.940 -19.451
0.0372 8.516   0.593 -19.848
-0.6497 10.359   0.195 -20.459
0.4215 10.352   1.142 -20.178
0.0372 1.627   0.033 -27.797
0.1166 2.001  -0.927 -27.523
0.0372 2.756  -1.260 -28.285
0.0372 1.136  -1.602 -27.545
-0.6497 2.481  -0.956 -26.221
0.4215 2.896  -1.823 -25.958
0.0372 10.713 -11.676 -16.124
0.1166 11.728 -11.335 -16.438
0.0372 11.686 -11.059 -17.482
0.0372 12.548 -12.135 -16.315
-0.6497 11.911 -10.109 -15.752
0.4215 11.684 -10.251 -14.875
0.0372 -13.234   2.481 -24.388
0.1166 -12.753   3.029 -23.566
0.0372 -13.341   3.803 -23.142
0.0372 -11.885   3.459 -24.020
-0.6497 -12.535   2.108 -22.590
0.4215 -12.695   2.546 -21.738
0.0372 2.709  -4.371 -22.795
0.1166 3.031  -4.774 -21.794
0.0372 3.833  -5.463 -21.924
0.0372 2.217  -5.287 -21.359
-0.6497 3.503  -3.756 -21.044
0.4215 2.783  -3.073 -20.914
0.0372 16.528  -7.383 -12.811
0.1166 17.158  -7.250 -11.909
0.0372 17.889  -8.120 -12.063
0.0372 16.537  -7.249 -11.053
-0.6497 18.001  -6.090 -11.901
0.4215 18.222  -5.912 -12.802
0.0372 4.957 -15.458 -12.129
0.1166 4.271 -16.045 -11.484
0.0372 4.829 -16.956 -11.237
0.0372 3.302 -16.314 -11.857
-0.6497 4.084 -15.350 -10.286
0.4215 4.461 -14.487 -10.454
0.0372 17.492  10.374 -17.870
0.1166 17.179   9.376 -17.622
0.0372 17.995   8.781 -17.188
0.0372 16.833   8.939 -18.488
-0.6497 16.051   9.535 -16.801
0.4215 15.219   9.842 -17.221
0.0372 17.553  -9.881 -15.443
0.1166 16.630  -9.324 -15.587
0.0372 16.675  -8.500 -14.913
0.0372 15.749 -10.013 -15.393
-0.6497 16.419  -8.867 -16.932
0.4215 15.448  -8.850 -17.015
0.0372 22.824  -3.362 -13.439
0.1166 21.853  -3.783 -13.753
0.0372 21.677  -3.688 -14.839
0.0372 21.066  -3.164 -13.264
-0.6497 21.676  -5.147 -13.274
0.4215 22.509  -5.238 -12.763
0.0372 7.394 -15.594 -24.274
0.1166 6.760 -14.727 -24.213
0.0372 5.817 -15.018 -23.770
0.0372 6.500 -14.300 -25.247
-0.6497 7.469 -13.871 -23.370
0.4215 7.064 -13.014 -23.367
0.0372 -1.515  16.769 -15.544
0.1166 -2.556  16.788 -15.332
0.0372 -3.059  17.346 -16.101
0.0372 -2.760  17.251 -14.347
-0.6497 -3.043  15.547 -15.398
0.4215 -2.588  14.934 -14.743
0.0372 -11.606   6.409 -20.442
0.1166 -12.546   6.940 -20.508
0.0372 -12.416   7.763 -21.175
0.0372 -12.679   7.504 -19.627
-0.6497 -13.632   6.111 -20.816
0.4215 -14.402   6.561 -20.497
0.0372 10.934 -18.927  19.293
0.1166 10.592 -19.134  20.312
0.0372 11.366 -19.746  20.941
0.0372 9.553 -19.584  20.272
-0.6497 10.561 -17.822  20.875
0.4215 11.379 -17.391  20.937
0.0372 8.146 -16.686  23.179
0.1166 7.220 -17.053  22.661
0.0372 6.834 -16.284  21.986
0.0372 6.430 -17.249  23.362
-0.6497 7.488 -18.289  22.038
0.4215 8.223 -18.273  21.415
0.0372 3.024 -28.764   3.359
0.1166 3.482 -28.775   4.382
0.0372 4.179 -27.919   4.508
0.0372 4.089 -29.694   4.347
-0.6497 2.571 -28.981   5.470
0.4215 3.116 -29.296   6.202
0.0372 6.306 -27.905  -0.374
0.1166 6.455 -26.799  -0.244
0.0372 7.046 -26.813   0.654
0.0372 5.500 -26.381  -0.012
-0.6497 6.997 -26.106  -1.341
0.4215 6.637 -26.480  -2.199
0.0372 5.936 -19.025  12.448
0.1166 5.222 -19.186  13.253
0.0372 4.217 -18.784  13.024
0.0372 5.351 -18.589  14.091
-0.6497 5.126 -20.604  13.595
0.4215 4.839 -21.027  12.787
0.0372 -2.718 -19.817  24.893
0.1166 -3.612 -19.536  24.342
0.0372 -4.501 -19.726  24.931
0.0372 -3.834 -20.181  23.465
-0.6497 -3.717 -18.230  23.880
0.4215 -2.833 -17.999  23.389
0.0372 5.635 -14.978  25.593
0.1166 4.857 -14.759  26.326
0.0372 5.255 -14.697  27.321
0.0372 4.080 -15.601  26.310
-0.6497 4.409 -13.480  26.093
0.4215 5.170 -12.878  26.278
0.0372 0.876 -17.209  -4.774
0.1166 0.970 -17.226  -3.699
0.0372 1.772 -17.910  -3.532
0.0372 0.056 -17.414  -3.145
-0.6497 1.487 -15.979  -3.340
0.4215 0.935 -15.384  -3.802
0.0372 0.714 -13.039   1.980
0.1166 0.531 -11.988   1.995
0.0372 1.425 -11.498   1.607
0.0372 0.373 -11.617   3.005
-0.6497 -0.599 -11.840   1.182
0.4215 -1.402 -12.263   1.549
0.0372 4.694 -23.334  19.205
0.1166 4.531 -24.457  19.131
0.0372 3.637 -24.775  19.681
0.0372 5.348 -24.928  19.725
-0.6497 4.589 -24.977  17.856
0.4215 5.404 -24.832  17.391
0.0372 16.219 -22.017   6.189
0.1166 16.913 -22.683   6.708
0.0372 17.078 -23.544   6.055
0.0372 16.431 -22.887   7.688
-0.6497 18.241 -22.034   6.861
0.4215 18.757 -22.007   6.060
0.0372 -5.455 -24.166   2.318
0.1166 -6.088 -23.373   1.865
0.0372 -7.016 -23.312   2.482
0.0372 -6.340 -23.497   0.810
-0.6497 -5.469 -22.111   2.150
0.4215 -4.595 -22.147   1.785
0.0372 12.293  -9.556  17.989
0.1166 11.733 -10.383  18.484
0.0372 11.184  -9.991  19.303
0.0372 12.516 -11.084  18.687
-0.6497 10.776 -10.937  17.559
0.4215 10.219 -10.278  17.223
0.0372 7.263 -22.357   0.852
0.1166 8.060 -23.092   0.697
0.0372 8.240 -23.309  -0.367
0.0372 7.863 -24.005   1.227
-0.6497 9.308 -22.663   1.279
0.4215 10.048 -23.313   1.068
0.0372 5.362 -15.552  16.319
0.1166 5.629 -14.510  16.168
0.0372 6.647 -14.432  16.641
0.0372 5.001 -13.878  16.777
-0.6497 5.666 -14.114  14.796
0.4215 4.723 -13.920  14.709
0.0372 1.193 -20.960  16.539
0.1166 1.388 -21.605  15.720
0.0372 2.431 -21.402  15.459
0.0372 0.690 -21.313  14.881
-0.6497 1.324 -22.945  16.078
0.4215 2.138 -23.370  15.769
0.0372 14.594 -12.912  24.700
0.1166 13.787 -12.476  25.317
0.0372 14.260 -11.603  25.799
0.0372 13.261 -13.165  25.919
-0.6497 12.764 -11.955  24.422
0.4215 12.970 -11.010  24.372
0.0372 1.324 -28.016  12.930
0.1166 2.296 -27.809  12.461
0.0372 3.120 -28.226  13.019
0.0372 2.407 -26.744  12.346
-0.6497 2.398 -28.403  11.210
0.4215 1.549 -28.787  10.903
0.0372 3.652 -26.206  14.103
0.1166 3.139 -25.359  14.574
0.0372 2.896 -25.635  15.598
0.0372 2.147 -25.214  14.112
-0.6497 3.945 -24.161  14.690
0.4215 4.650 -24.364  15.294
0.0372 11.760 -13.081  22.261
0.1166 12.267 -13.102  21.254
0.0372 12.423 -12.069  20.831
0.0372 11.621 -13.683  20.667
-0.6497 13.603 -13.692  21.343
0.4215 14.283 -13.021  21.570
0.0372 0.458 -30.956  -1.958
0.1166 0.391 -30.235  -2.771
0.0372 -0.563 -29.665  -2.573
0.0372 0.361 -30.722  -3.829
-0.6497 1.426 -29.299  -2.591
0.4215 1.282 -28.672  -3.353
0.0372 2.681 -18.501  -1.262
0.1166 2.226 -18.508  -0.259
0.0372 1.442 -17.814  -0.355
0.0372 2.938 -18.202   0.544
-0.6497 1.842 -19.881  -0.174
0.4215 2.690 -20.292   0.113
0.0372 5.273 -23.489   2.674
0.1166 5.298 -24.363   3.343
0.0372 4.267 -24.624   3.460
0.0372 5.770 -24.083   4.307
-0.6497 5.972 -25.420   2.663
0.4215 6.905 -25.440   2.914
0.0372 -1.724 -28.336   8.949
0.1166 -1.255 -29.074   9.636
0.0372 -1.221 -29.974   9.029
0.0372 -1.873 -29.142  10.583
-0.6497 0.071 -28.659   9.971
0.4215 0.092 -27.754   9.651
0.0372 6.348 -20.569   8.936
0.1166 6.391 -19.945   8.016
0.0372 5.408 -20.141   7.514
0.0372 7.209 -20.386   7.479
-0.6497 6.622 -18.607   8.369
0.4215 6.752 -18.190   7.469
0.0372 5.282 -20.791   4.302
0.1166 4.977 -20.352   3.379
0.0372 5.517 -20.783   2.527
0.0372 5.166 -19.273   3.333
-0.6497 3.569 -20.564   3.294
0.4215 3.420 -21.493   3.561
0.0372 5.015 -19.630  -1.119
0.1166 4.796 -20.635  -1.367
0.0372 5.674 -21.028  -1.813
0.0372 3.958 -20.665  -2.059
-0.6497 4.413 -21.432  -0.276
0.4215 4.380 -22.360  -0.597
0.0372 6.569 -26.247  10.952
0.1166 5.704 -26.836  11.306
0.0372 5.075 -26.147  11.871
0.0372 6.166 -27.462  12.049
-0.6497 4.930 -27.483  10.314
0.4215 4.123 -27.764  10.691
0.0372 5.028 -22.604   8.287
0.1166 4.449 -23.359   7.662
0.0372 4.501 -24.295   8.168
0.0372 4.930 -23.419   6.667
-0.6497 3.064 -23.062   7.636
0.4215 2.555 -23.828   7.948
0.0372 7.802 -23.989   9.762
0.1166 8.186 -23.240   9.031
0.0372 9.232 -23.540   8.909
0.0372 8.243 -22.354   9.652
-0.6497 7.484 -23.202   7.771
0.4215 7.505 -24.076   7.383
0.0372 2.441 -20.157  -9.474
0.1166 1.362 -20.339  -9.432
0.0372 1.158 -21.354  -9.774
0.0372 0.790 -19.671 -10.094
-0.6497 0.928 -20.050  -8.177
0.4215 1.391 -19.250  -7.977
0.0372 10.003 -18.427   4.555
0.1166 9.295 -17.694   4.123
0.0372 9.577 -17.415   3.070
0.0372 9.382 -16.814   4.759
-0.6497 8.056 -18.293   4.123
0.4215 8.199 -19.189   3.809
0.0372 4.644 -10.464   7.843
0.1166 4.955 -10.222   6.794
0.0372 5.608  -9.399   6.853
0.0372 4.042 -10.081   6.229
-0.6497 5.750 -11.341   6.406
0.4215 6.618 -11.087   6.710
0.0372 7.893 -12.618   2.574
0.1166 7.461 -13.012   3.489
0.0372 6.709 -13.762   3.321
0.0372 7.028 -12.254   4.094
-0.6497 8.556 -13.515   4.234
0.4215 8.308 -13.267   5.144
0.0372 15.937 -24.731  13.433
0.1166 14.788 -24.573  13.445
0.0372 14.435 -24.782  14.430
0.0372 14.380 -25.374  12.834
-0.6497 14.360 -23.352  12.903
0.4215 13.368 -23.387  12.750
0.0372 17.293 -18.918   6.621
0.1166 17.223 -19.147   7.677
0.0372 17.904 -19.956   7.958
0.0372 16.204 -19.462   7.851
-0.6497 17.424 -18.028   8.620
0.4215 17.695 -18.344   9.509
0.0372 13.174 -18.406  -5.056
0.1166 12.104 -18.224  -5.319
0.0372 11.450 -19.075  -5.402
0.0372 12.187 -17.826  -6.348
-0.6497 11.515 -17.186  -4.586
0.4215 10.967 -16.619  -5.114
0.0372 0.799 -18.782  18.470
0.1166 1.025 -18.371  19.502
0.0372 0.629 -17.389  19.464
0.0372 2.027 -18.349  19.693
-0.6497 0.372 -19.106  20.514
0.4215 0.847 -19.984  20.573
0.0372 17.541 -21.329 -11.319
0.1166 18.180 -21.866 -12.044
0.0372 17.791 -22.858 -12.398
0.0372 19.181 -22.013 -11.626
-0.6497 18.312 -20.995 -13.159
0.4215 17.486 -20.949 -13.683
0.0372 -0.908 -24.685  19.488
0.1166 -0.225 -24.659  18.659
0.0372 -0.848 -24.772  17.738
0.0372 0.598 -25.370  18.822
-0.6497 0.278 -23.235  18.675
0.4215 0.577 -22.998  17.785
0.0372 9.693 -27.499   1.752
0.1166 9.458 -27.621   2.790
0.0372 10.350 -28.051   3.311
0.0372 8.568 -28.291   2.852
-0.6497 9.143 -26.287   3.258
0.4215 9.922 -25.756   3.506
0.0372 0.485 -22.538 -16.189
0.1166 1.471 -23.115 -16.350
0.0372 1.588 -23.743 -15.491
0.0372 2.255 -22.364 -16.426
-0.6497 1.505 -23.953 -17.495
0.4215 2.436 -23.974 -17.709
0.0372 16.513 -19.236 -15.763
0.1166 15.940 -20.142 -15.964
0.0372 16.330 -20.788 -16.780
0.0372 14.876 -19.999 -16.244
-0.6497 16.009 -20.772 -14.647
0.4215 15.146 -21.277 -14.495
0.0372 26.804 -15.697  -6.524
0.1166 26.679 -15.257  -5.526
0.0372 27.565 -15.534  -4.991
0.0372 25.799 -15.828  -5.095
-0.6497 26.506 -13.908  -5.625
0.4215 26.879 -13.549  -4.790
0.0372 20.451 -16.569  14.483
0.1166 20.447 -17.599  14.102
0.0372 19.518 -18.084  14.076
0.0372 20.985 -18.247  14.807
-0.6497 20.919 -17.554  12.707
0.4215 21.091 -18.494  12.479
0.0372 10.961 -22.754   4.991
0.1166 11.606 -23.602   5.357
0.0372 11.488 -23.531   6.451
0.0372 12.673 -23.504   5.049
-0.6497 11.027 -24.806   4.836
0.4215 11.319 -25.553   5.368
0.0372 4.168 -24.221 -10.280
0.1166 4.333 -23.219 -10.001
0.0372 3.482 -22.620  -9.635
0.0372 4.594 -22.812 -10.905
-0.6497 5.375 -23.258  -9.045
0.4215 6.202 -23.296  -9.598
0.0372 18.812 -20.489  -9.701
0.1166 19.081 -19.427  -9.592
0.0372 18.698 -18.922 -10.485
0.0372 20.165 -19.302  -9.504
-0.6497 18.560 -18.839  -8.450
0.4215 17.696 -18.451  -8.640
0.0372 4.263 -10.991   0.239
0.1166 4.651 -10.116   0.847
0.0372 3.899  -9.458   1.260
0.0372 5.216  -9.535   0.126
-0.6497 5.579 -10.694   1.759
0.4215 5.152 -11.473   2.212
0.0372 2.844 -28.012  -7.248
0.1166 3.421 -28.147  -8.125
0.0372 2.891 -28.868  -8.800
0.0372 4.346 -28.637  -7.902
-0.6497 3.568 -26.984  -8.879
0.4215 4.031 -26.337  -8.293
0.0372 0.108 -21.995 -21.915
0.1166 0.992 -21.424 -21.904
0.0372 1.211 -21.254 -22.976
0.0372 1.891 -21.931 -21.518
-0.6497 0.676 -20.263 -21.165
0.4215 0.040 -20.489 -20.456
0.0372 13.243   4.376 -25.213
0.1166 14.219   4.986 -25.223
0.0372 14.528   4.950 -26.310
0.0372 15.067   4.636 -24.543
-0.6497 13.790   6.334 -24.809
0.4215 12.830   6.565 -25.027
0.0372 -1.220 -25.253   6.021
0.1166 -1.781 -26.042   6.543
0.0372 -2.440 -25.532   7.186
0.0372 -1.070 -26.673   6.979
-0.6497 -2.479 -26.669   5.499
0.4215 -1.862 -27.252   5.009
0.0372 9.780 -10.930 -22.362
0.1166 8.929 -10.233 -22.198
0.0372 8.235 -10.574 -21.466
0.0372 8.483 -10.132 -23.180
-0.6497 9.313  -8.964 -21.822
0.4215 8.738  -8.258 -22.154
0.0372 3.562 -17.402  -6.852
0.1166 3.637 -17.258  -7.919
0.0372 4.481 -17.703  -8.464
0.0372 3.676 -16.160  -8.017
-0.6497 2.458 -17.700  -8.474
0.4215 2.470 -17.423  -9.438
0.0372 26.166 -18.106   2.572
0.1166 26.364 -17.193   1.972
0.0372 27.346 -17.161   1.519
0.0372 26.310 -16.329   2.668
-0.6497 25.291 -17.095   1.077
0.4215 25.017 -16.152   0.951
0.0372 14.683 -20.873  -0.265
0.1166 15.571 -21.353   0.111
0.0372 16.410 -21.162  -0.567
0.0372 15.422 -22.376   0.076
-0.6497 15.830 -20.889   1.410
0.4215 15.133 -20.288   1.678
0.0372 7.302 -20.875 -14.284
0.1166 7.542 -19.778 -14.474
0.0372 6.983 -19.104 -13.813
0.0372 7.354 -19.529 -15.536
-0.6497 8.948 -19.643 -14.331
0.4215 9.470 -20.045 -15.101
0.0372 3.980 -26.734 -15.947
0.1166 3.380 -26.748 -14.983
0.0372 3.372 -27.726 -14.557
0.0372 2.310 -26.529 -15.092
-0.6497 3.937 -25.800 -14.081
0.4215 3.483 -26.084 -13.250
0.0372 10.094 -16.283  -8.471
0.1166 9.623 -16.849  -9.287
0.0372 9.761 -16.287 -10.225
0.0372 8.577 -17.067  -9.078
-0.6497 10.324 -18.042  -9.473
0.4215 9.906 -18.481 -10.234
0.0372 4.917 -20.764 -17.130
0.1166 4.423 -19.985 -16.574
0.0372 5.149 -19.389 -15.942
0.0372 3.543 -20.377 -16.064
-0.6497 3.970 -18.965 -17.401
0.4215 3.420 -19.386 -18.064
0.0372 10.128 -20.756  -2.840
0.1166 11.199 -20.739  -2.932
0.0372 11.756 -20.787  -2.026
0.0372 11.487 -19.744  -3.255
-0.6497 11.536 -21.696  -3.922
0.4215 11.068 -21.527  -4.769
0.0372 1.003 -17.047 -17.854
0.1166 1.737 -16.833 -18.704
0.0372 2.412 -17.651 -18.933
0.0372 2.404 -16.074 -18.326
-0.6497 1.033 -16.251 -19.808
0.4215 0.898 -16.841 -20.513
0.0372 6.991 -16.091  13.635
0.1166 7.949 -16.443  13.912
0.0372 8.236 -16.148  14.828
0.0372 8.670 -15.941  13.261
-0.6497 8.144 -17.740  13.500
0.4215 7.915 -17.779  12.584
0.0372 15.190 -19.156 -12.822
0.1166 14.303 -18.546 -12.759
0.0372 14.108 -18.264 -11.699
0.0372 13.377 -18.945 -13.212
-0.6497 14.549 -17.308 -13.391
0.4215 15.513 -17.370 -13.623
0.0372 3.006 -20.606  -6.285
0.1166 3.395 -20.046  -5.388
0.0372 2.616 -19.651  -4.787
0.0372 4.187 -19.307  -5.639
-0.6497 3.792 -21.087  -4.659
0.4215 2.985 -21.334  -4.101
0.0372 24.021 -11.381  -1.502
0.1166 24.824 -12.045  -1.709
0.0372 24.846 -12.381  -2.743
0.0372 24.742 -12.926  -1.065
-0.6497 26.029 -11.442  -1.342
0.4215 26.073 -10.622  -1.842
0.0372 4.456 -23.206  -3.071
0.1166 5.198 -23.867  -2.693
0.0372 6.166 -23.477  -2.922
0.0372 4.979 -24.830  -3.195
-0.6497 5.031 -24.120  -1.287
0.4215 5.619 -24.859  -0.963
0.0372 7.792 -28.714  -7.219
0.1166 7.113 -27.872  -7.255
0.0372 6.362 -28.066  -8.005
0.0372 7.720 -27.029  -7.562
-0.6497 6.485 -27.595  -6.016
0.4215 5.751 -27.021  -6.265
0.0372 -2.330 -15.466  -8.123
0.1166 -1.278 -15.178  -7.916
0.0372 -1.238 -14.147  -7.455
0.0372 -0.696 -15.169  -8.782
-0.6497 -0.740 -16.079  -6.968
0.4215 -1.242 -16.906  -7.030
0.0372 12.711 -17.717 -20.557
0.1166 12.899 -18.273 -19.577
0.0372 13.809 -17.832 -19.100
0.0372 13.117 -19.320 -19.893
-0.6497 11.821 -18.154 -18.681
0.4215 11.737 -17.230 -18.470
0.0372 19.992 -18.396  -1.496
0.1166 19.329 -18.557  -0.649
0.0372 19.750 -17.990   0.233
0.0372 19.143 -19.550  -0.324
-0.6497 18.051 -17.941  -0.969
0.4215 17.624 -17.775  -0.069
0.0372 9.539 -23.827  -2.573
0.1166 10.546 -24.210  -2.270
0.0372 10.486 -25.246  -1.811
0.0372 10.922 -23.518  -1.469
-0.6497 11.478 -24.252  -3.344
0.4215 11.410 -23.290  -3.632
0.0372 15.585 -15.191 -23.245
0.1166 14.529 -15.269 -22.970
0.0372 13.971 -15.653 -23.924
0.0372 14.077 -14.313 -22.615
-0.6497 14.294 -16.345 -22.035
0.4215 14.739 -16.075 -21.195
0.0372 13.195 -20.990  -8.743
0.1166 14.099 -21.554  -8.514
0.0372 14.252 -21.864  -7.528
0.0372 14.951 -20.981  -8.902
-0.6497 13.879 -22.630  -9.401
0.4215 14.498 -23.251  -9.091
0.0372 15.710 -15.959  -2.780
0.1166 15.429 -16.840  -2.168
0.0372 14.353 -17.109  -2.371
0.0372 15.564 -16.729  -1.101
-0.6497 16.049 -17.957  -2.613
0.4215 16.850 -18.125  -2.057
0.0372 27.186  -8.178  -3.506
0.1166 26.682  -8.951  -4.085
0.0372 27.332  -9.788  -4.319
0.0372 26.386  -8.630  -5.146
-0.6497 25.744  -9.486  -3.307
0.4215 25.104 -10.027  -3.900
0.0372 16.818 -25.915  -8.486
0.1166 17.048 -25.116  -7.784
0.0372 18.070 -24.694  -8.046
0.0372 17.174 -25.507  -6.766
-0.6497 16.114 -24.065  -7.779
0.4215 16.368 -23.348  -7.129
0.0372 -7.127 -18.535  -4.824
0.1166 -7.820 -18.232  -4.079
0.0372 -8.208 -19.076  -3.477
0.0372 -8.638 -17.820  -4.647
-0.6497 -7.235 -17.152  -3.290
0.4215 -6.436 -16.824  -3.740
0.0372 -1.357  -9.118 -26.115
0.1166 -1.126 -10.031 -25.579
0.0372 -1.091 -10.754 -26.382
0.0372 -1.861 -10.345 -24.844
-0.6497 0.076  -9.913 -24.785
0.4215 -0.104  -9.259 -24.088
0.0372 -1.204  27.490   7.547
0.1166 -0.491  28.287   7.946
0.0372 -0.947  29.269   7.657
0.0372 0.440  28.044   7.467
-0.6497 -0.457  28.169   9.354
0.4215 -1.366  28.125   9.656
0.0372 -10.839   5.786  18.309
0.1166 -11.794   5.340  18.201
0.0372 -11.728   4.337  18.415
0.0372 -12.237   5.545  17.204
-0.6497 -12.672   5.883  19.140
0.4215 -12.250   5.770  20.069
0.0372 11.661  25.387  15.361
0.1166 11.362  24.368  15.616
0.0372 10.832  24.385  16.583
0.0372 12.186  23.697  15.561
-0.6497 10.364  23.994  14.727
0.4215 10.804  24.018  13.822
0.0372 -14.619   7.365   0.629
0.1166 -13.657   7.097   0.209
0.0372 -13.748   6.555  -0.669
0.0372 -13.125   6.446   0.900
-0.6497 -12.824   8.279   0.051
0.4215 -13.506   8.742  -0.483
0.0372 -14.397  17.436  20.563
0.1166 -14.790  16.498  20.422
0.0372 -15.621  16.251  21.089
0.0372 -14.055  15.663  20.567
-0.6497 -15.245  16.510  19.075
0.4215 -15.570  17.418  18.812
0.0372 -15.365  17.528  10.230
0.1166 -16.160  18.132   9.894
0.0372 -16.570  18.554  10.801
0.0372 -16.942  17.650   9.289
-0.6497 -15.413  19.083   9.211
0.4215 -14.735  18.706   8.684
0.0372 -10.435  27.687  -3.000
0.1166 -9.466  27.806  -2.591
0.0372 -9.444  28.717  -1.982
0.0372 -8.713  27.750  -3.371
-0.6497 -9.141  26.751  -1.679
0.4215 -9.376  25.872  -2.161
0.0372 -17.939  12.151  19.865
0.1166 -17.866  11.648  18.957
0.0372 -18.271  12.288  18.144
0.0372 -18.415  10.712  18.989
-0.6497 -16.586  11.432  18.562
0.4215 -16.131  12.270  18.356
0.0372 -3.073  21.892  19.436
0.1166 -4.130  21.596  19.300
0.0372 -4.709  22.263  19.930
0.0372 -4.189  20.557  19.690
-0.6497 -4.448  21.642  17.857
0.4215 -3.820  21.072  17.320
0.0372 -4.805  27.147  11.797
0.1166 -4.481  26.693  10.835
0.0372 -5.299  26.546  10.179
0.0372 -3.962  25.758  11.046
-0.6497 -3.440  27.498  10.249
0.4215 -3.848  28.177   9.717
0.0372 3.555  24.838  10.061
0.1166 2.945  24.001  10.449
0.0372 3.170  23.807  11.487
0.0372 3.110  22.995   9.920
-0.6497 1.492  24.175  10.237
0.4215 1.232  24.883  10.887
0.0372 1.822  21.396  12.179
0.1166 1.421  20.506  12.718
0.0372 1.656  20.603  13.765
0.0372 1.890  19.665  12.318
-0.6497 0.015  20.521  12.544
0.4215 -0.463  19.884  13.084
0.0372 6.698  10.827  16.338
0.1166 5.978  11.676  16.489
0.0372 4.976  11.276  16.243
0.0372 6.250  12.419  15.848
-0.6497 5.923  12.172  17.834
0.4215 6.129  11.444  18.417
0.0372 -15.300  19.609   6.662
0.1166 -14.554  19.088   6.042
0.0372 -13.865  19.698   5.463
0.0372 -15.000  18.368   5.390
-0.6497 -13.731  18.339   6.973
0.4215 -13.129  17.780   6.482
0.0372 -21.017  15.184   6.747
0.1166 -21.312  16.219   6.602
0.0372 -20.915  16.946   7.315
0.0372 -22.338  16.262   6.867
-0.6497 -21.240  16.675   5.306
0.4215 -20.330  16.972   5.301
0.0372 -12.094  13.426   0.094
0.1166 -11.364  12.792  -0.363
0.0372 -11.494  12.821  -1.463
0.0372 -11.705  11.713  -0.114
-0.6497 -10.063  12.939   0.116
0.4215 -9.777  13.857   0.016
0.0372 -11.106  10.473  23.056
0.1166 -11.857   9.738  23.456
0.0372 -11.582   8.836  23.017
0.0372 -12.863   9.974  23.222
-0.6497 -11.690   9.735  24.792
0.4215 -10.824   9.526  25.000
0.0372 -9.681  20.188  -1.602
0.1166 -10.099  19.262  -1.934
0.0372 -9.635  19.177  -2.938
0.0372 -11.183  19.304  -2.069
-0.6497 -9.729  18.289  -1.021
0.4215 -8.767  18.481  -0.845
0.0372 -4.532  11.959   9.438
0.1166 -4.611  11.857  10.568
0.0372 -3.880  11.160  10.950
0.0372 -5.641  11.490  10.813
-0.6497 -4.296  13.049  11.179
0.4215 -3.303  13.000  11.280
0.0372 -20.465   4.970   9.718
0.1166 -20.188   4.022  10.252
0.0372 -20.235   4.132  11.338
0.0372 -19.099   3.717   9.986
-0.6497 -21.046   2.959   9.922
0.4215 -20.545   2.139  10.084
0.0372 -6.132  13.489   3.221
0.1166 -5.116  13.302   2.926
0.0372 -4.406  13.419   3.724
0.0372 -4.878  14.009   2.096
-0.6497 -4.899  12.016   2.597
0.4215 -5.390  11.510   3.278
0.0372 -15.831   9.646  -1.886
0.1166 -15.758   9.904  -0.856
0.0372 -16.181   9.140  -0.192
0.0372 -16.362  10.808  -0.631
-0.6497 -14.398  10.335  -0.563
0.4215 -14.329  11.239  -0.950
0.0372 -7.683  15.168  12.208
0.1166 -7.649  14.064  12.072
0.0372 -7.311  13.739  11.147
0.0372 -8.707  13.781  12.258
-0.6497 -6.903  13.426  13.064
0.4215 -5.963  13.348  12.705
0.0372 -17.606  17.124  12.905
0.1166 -17.678  17.667  13.827
0.0372 -18.759  17.685  14.148
0.0372 -17.360  18.728  13.616
-0.6497 -16.781  17.069  14.792
0.4215 -16.099  16.486  14.325
0.0372 -5.541  13.613  23.485
0.1166 -6.562  13.874  23.805
0.0372 -6.748  14.003  24.888
0.0372 -7.122  13.067  23.338
-0.6497 -7.032  15.073  23.204
0.4215 -7.471  14.831  22.370
0.0372 -11.846  14.688  10.412
0.1166 -11.410  15.172   9.547
0.0372 -12.168  15.920   9.284
0.0372 -11.274  14.548   8.640
-0.6497 -10.192  15.862   9.855
0.4215 -10.151  16.384  10.654
0.0372 -24.238  14.445  14.125
0.1166 -23.200  14.126  13.952
0.0372 -23.041  13.106  14.442
0.0372 -22.506  14.817  14.390
-0.6497 -22.892  14.106  12.598
0.4215 -23.563  13.527  12.202
0.0372 10.490  23.111  11.286
0.1166 10.254  24.093  11.610
0.0372 9.362  24.067  12.180
0.0372 10.166  24.709  10.751
-0.6497 11.253  24.645  12.401
0.4215 12.140  24.516  11.963
0.0372 -11.272  19.061  16.034
0.1166 -10.587  19.618  15.407
0.0372 -9.779  20.105  15.993
0.0372 -11.193  20.383  15.004
-0.6497 -10.139  18.843  14.369
0.4215 -9.550  18.204  14.831
0.0372 3.352  17.947  13.600
0.1166 3.956  18.454  14.433
0.0372 3.836  19.569  14.398
0.0372 4.953  18.253  14.305
-0.6497 3.486  18.037  15.747
0.4215 3.962  17.239  16.125
0.0372 1.958  17.447  19.053
0.1166 2.080  17.945  19.998
0.0372 1.141  18.486  20.203
0.0372 2.945  18.613  19.917
-0.6497 2.091  16.962  20.976
0.4215 2.731  16.294  20.722
0.0372 -5.650   8.147   8.171
0.1166 -5.191   8.989   7.558
0.0372 -6.000   9.732   7.600
0.0372 -5.065   8.687   6.531
-0.6497 -4.053   9.635   8.120
0.4215 -3.696   9.137   8.884
0.0372 -0.450  29.764  12.462
0.1166 -0.144  29.320  13.463
0.0372 -0.908  29.575  14.218
0.0372 0.785  29.696  13.836
-0.6497 -0.129  27.946  13.347
0.4215 -0.613  27.658  14.172
0.0372 -6.903  14.222  19.083
0.1166 -7.629  15.000  19.314
0.0372 -8.473  15.062  18.562
0.0372 -6.960  15.883  19.113
-0.6497 -8.106  14.908  20.685
0.4215 -8.966  14.456  20.672
0.0372 -5.394  25.050  14.965
0.1166 -5.059  24.591  14.046
0.0372 -4.500  23.695  14.231
0.0372 -4.344  25.310  13.483
-0.6497 -6.076  24.210  13.150
0.4215 -6.500  24.927  12.668
0.0372 -8.099  18.225  10.616
0.1166 -8.766  18.700  11.349
0.0372 -9.130  19.624  10.995
0.0372 -8.021  18.902  12.146
-0.6497 -9.791  17.943  11.797
0.4215 -9.959  18.303  12.770
0.0372 -8.958  17.960   7.145
0.1166 -8.329  18.756   7.511
0.0372 -8.275  18.900   8.569
0.0372 -8.822  19.640   7.132
-0.6497 -7.143  18.462   6.813
0.4215 -7.332  18.081   5.980
0.0372 -12.014  16.407  16.254
0.1166 -12.205  16.132  17.299
0.0372 -11.220  15.809  17.771
0.0372 -12.927  15.291  17.306
-0.6497 -12.780  17.202  18.016
0.4215 -13.606  17.028  18.419
0.0372 -16.659  10.950   9.984
0.1166 -16.479  10.804  11.001
0.0372 -16.827   9.778  11.383
0.0372 -16.952  11.535  11.641
-0.6497 -15.068  11.029  11.200
0.4215 -14.775  10.775  12.092
0.0372 -13.505   6.438  22.788
0.1166 -12.657   5.776  22.930
0.0372 -12.933   4.745  23.115
0.0372 -12.086   6.060  23.824
-0.6497 -11.807   5.987  21.787
0.4215 -10.859   5.828  22.015
0.0372 -18.060  19.719  16.918
0.1166 -17.634  18.976  17.679
0.0372 -18.386  18.241  17.822
0.0372 -17.564  19.510  18.595
-0.6497 -16.336  18.480  17.359
0.4215 -16.474  18.075  16.477
0.0372 -8.193  15.470  15.901
0.1166 -8.090  16.196  15.070
0.0372 -8.733  15.953  14.217
0.0372 -7.082  16.015  14.624
-0.6497 -8.229  17.544  15.635
0.4215 -7.461  17.531  16.324
0.0372 -9.566  26.538  10.266
0.1166 -9.269  26.277  11.254
0.0372 -9.727  25.247  11.448
0.0372 -9.740  26.993  11.930
-0.6497 -7.899  26.458  11.583
0.4215 -7.513  27.223  11.053
0.0372 5.059  27.435 -11.004
0.1166 5.857  27.635 -11.696
0.0372 6.261  28.668 -11.576
0.0372 5.450  27.432 -12.712
-0.6497 6.962  26.797 -11.511
0.4215 6.617  25.919 -11.624
0.0372 -14.783   4.016 -19.101
0.1166 -13.897   3.357 -19.190
0.0372 -14.140   2.288 -19.246
0.0372 -13.262   3.401 -18.308
-0.6497 -13.086   3.668 -20.311
0.4215 -13.238   4.654 -20.494
0.0372 -5.323  29.586  -7.387
0.1166 -4.844  29.185  -8.320
0.0372 -3.963  29.708  -8.614
0.0372 -5.573  29.241  -9.073
-0.6497 -4.578  27.871  -7.999
0.4215 -3.589  27.710  -7.912
0.0372 -14.204  20.939  13.116
0.1166 -13.994  20.259  12.309
0.0372 -13.653  20.747  11.367
0.0372 -14.978  19.803  12.109
-0.6497 -12.927  19.406  12.739
0.4215 -12.649  18.829  11.996
0.0372 -5.623  22.360  -2.973
0.1166 -5.319  21.438  -3.439
0.0372 -6.234  20.859  -3.575
0.0372 -4.752  20.889  -2.757
-0.6497 -4.666  21.566  -4.754
0.4215 -5.253  21.741  -5.567
0.0372 -8.917  28.021   8.400
0.1166 -7.855  28.114   8.150
0.0372 -7.697  29.056   7.629
0.0372 -7.446  27.273   7.573
-0.6497 -7.142  28.196   9.329
0.4215 -6.257  28.134   9.079
0.0372 -3.716  28.372   4.699
0.1166 -4.719  28.380   4.947
0.0372 -5.265  27.805   4.167
0.0372 -4.959  29.451   4.911
-0.6497 -4.826  27.887   6.214
0.4215 -4.857  26.940   6.172
0.0372 -8.130  23.677  16.765
0.1166 -7.026  23.522  17.035
0.0372 -6.624  24.510  17.351
0.0372 -6.499  23.167  16.219
-0.6497 -6.889  22.654  18.133
0.4215 -6.017  22.270  18.060
0.0372 0.091  28.358  -0.586
0.1166 -0.892  28.711  -0.841
0.0372 -0.972  29.764  -0.583
0.0372 -1.609  28.317  -0.179
-0.6497 -1.327  28.583  -2.198
0.4215 -0.611  28.993  -2.718
0.0372 -20.357  18.786   2.466
0.1166 -20.040  18.565   1.401
0.0372 -20.849  18.061   0.849
0.0372 -19.145  17.972   1.461
-0.6497 -19.723  19.807   0.874
0.4215 -18.885  20.187   1.239
0.0372 -3.314  19.577  -7.481
0.1166 -3.343  18.979  -6.560
0.0372 -2.629  18.215  -6.743
0.0372 -4.317  18.592  -6.384
-0.6497 -2.837  19.864  -5.528
0.4215 -3.562  20.392  -5.100
0.0372 -17.996   6.901  22.542
0.1166 -17.435   7.451  21.835
0.0372 -17.471   8.552  22.015
0.0372 -17.938   7.311  20.935
-0.6497 -16.117   6.997  21.684
0.4215 -15.685   7.368  20.902
0.0372 -11.571  21.980  -8.496
0.1166 -11.435  20.940  -8.641
0.0372 -11.956  20.403  -7.825
0.0372 -10.354  20.748  -8.648
-0.6497 -11.969  20.485  -9.918
0.4215 -11.824  21.213 -10.510
0.0372 -18.388  14.481   2.473
0.1166 -19.057  15.329   2.434
0.0372 -18.592  15.931   1.670
0.0372 -19.126  15.875   3.325
-0.6497 -20.325  14.964   1.951
0.4215 -20.609  14.172   2.465
0.0372 -3.215  10.004  -7.215
0.1166 -2.561  10.795  -7.580
0.0372 -2.745  11.123  -8.643
0.0372 -1.522  10.558  -7.407
-0.6497 -2.838  11.966  -6.883
0.4215 -2.417  11.811  -5.975
0.0372 -13.268  26.983   6.540
0.1166 -13.262  26.077   7.223
0.0372 -14.119  25.482   7.011
0.0372 -13.315  26.574   8.249
-0.6497 -12.163  25.267   6.988
0.4215 -11.939  25.579   6.101
0.0372 9.969  29.279   7.189
0.1166 9.254  28.773   6.487
0.0372 9.819  28.578   5.580
0.0372 8.461  29.473   6.178
-0.6497 8.688  27.635   7.029
0.4215 8.694  27.730   7.976
0.0372 -2.384  18.539 -23.373
0.1166 -3.275  18.210 -23.853
0.0372 -3.288  18.676 -24.816
0.0372 -4.127  18.573 -23.224
-0.6497 -3.309  16.832 -23.943
0.4215 -4.194  16.488 -23.722
0.0372 -17.684  17.011  -8.173
0.1166 -17.144  17.460  -7.351
0.0372 -16.154  17.544  -7.648
0.0372 -17.255  16.940  -6.401
-0.6497 -17.586  18.840  -7.272
0.4215 -18.544  18.904  -6.987
0.0372 -14.363  19.120 -11.920
0.1166 -14.329  17.988 -12.085
0.0372 -14.091  17.455 -11.243
0.0372 -13.525  17.770 -12.791
-0.6497 -15.565  17.648 -12.676
0.4215 -16.176  17.802 -11.919
0.0372 -11.284  16.112 -10.359
0.1166 -11.332  17.100  -9.862
0.0372 -10.645  17.215  -9.014
0.0372 -12.380  17.276  -9.500
-0.6497 -11.104  18.088 -10.824
0.4215 -11.584  18.872 -10.489
0.0372 -5.636  30.605   9.621
0.1166 -5.231  30.486   8.552
0.0372 -4.524  31.324   8.309
0.0372 -5.911  30.441   7.728
-0.6497 -4.562  29.317   8.509
0.4215 -4.602  29.123   7.549
0.0372 -6.647  19.938   5.267
0.1166 -6.257  20.758   4.748
0.0372 -5.310  20.478   4.288
0.0372 -5.850  21.478   5.379
-0.6497 -7.108  21.424   3.754
0.4215 -7.929  21.728   4.220
0.0372 7.589  25.011   0.564
0.1166 7.569  24.905   1.649
0.0372 8.591  24.641   1.969
0.0372 6.920  24.095   1.961
-0.6497 7.009  26.073   2.206
0.4215 6.070  25.819   2.412
0.0372 -14.260  25.465   4.591
0.1166 -13.927  25.679   3.567
0.0372 -14.258  26.637   3.134
0.0372 -14.247  24.751   3.026
-0.6497 -12.514  25.825   3.636
0.4215 -12.197  25.541   2.734
0.0372 3.392  20.804 -10.975
0.1166 2.708  20.251 -11.609
0.0372 3.292  19.621 -12.282
0.0372 2.249  20.964 -12.260
-0.6497 1.721  19.472 -10.825
0.4215 1.512  18.650 -11.345
0.0372 9.273  28.381  -4.142
0.1166 10.372  28.486  -4.283
0.0372 11.007  28.310  -3.443
0.0372 10.594  29.445  -4.738
-0.6497 10.823  27.483  -5.238
0.4215 10.373  27.560  -6.058
0.0372 -1.447  22.504  -2.952
0.1166 -2.079  23.337  -2.611
0.0372 -2.954  22.868  -2.269
0.0372 -2.275  23.947  -3.503
-0.6497 -1.542  24.097  -1.535
0.4215 -0.856  24.541  -1.948
0.0372 4.046  27.740  -5.105
0.1166 3.779  27.318  -4.106
0.0372 4.403  27.789  -3.287
0.0372 4.104  26.275  -4.179
-0.6497 2.322  27.265  -4.039
0.4215 2.113  26.702  -3.262
0.0372 -10.159  19.768  18.714
0.1166 -11.227  19.892  19.071
0.0372 -11.787  19.934  18.143
0.0372 -11.352  20.786  19.679
-0.6497 -11.435  18.721  19.764
0.4215 -11.870  18.142  19.094
0.0372 -8.148  22.222 -10.009
0.1166 -7.703  22.732 -10.880
0.0372 -6.604  22.427 -10.736
0.0372 -7.619  23.758 -10.782
-0.6497 -8.136  22.271 -12.162
0.4215 -7.542  22.589 -12.830
0.0372 -17.243  11.446   2.028
0.1166 -16.578  12.209   2.538
0.0372 -16.638  13.201   2.086
0.0372 -15.653  11.690   2.250
-0.6497 -16.813  12.180   3.894
0.4215 -16.164  12.812   4.266
0.0372 1.307  21.369  23.717
0.1166 1.759  20.643  22.984
0.0372 2.676  20.323  23.458
0.0372 2.132  21.082  22.013
-0.6497 0.827  19.635  22.643
0.4215 0.260  19.788  21.833
0.0372 13.618  26.191 -11.977
0.1166 14.403  25.644 -11.517
0.0372 15.386  26.076 -11.706
0.0372 14.342  24.580 -11.837
-0.6497 14.068  25.699 -10.162
0.4215 14.832  25.341  -9.678
0.0372 -1.676  22.971  -7.297
0.1166 -0.796  22.988  -6.666
0.0372 -0.830  22.062  -6.093
0.0372 -0.785  23.812  -5.981
-0.6497 0.357  23.102  -7.497
0.4215 0.433  22.265  -8.075
0.0372 -9.364  17.522  -6.480
0.1166 -10.300  17.360  -5.980
0.0372 -10.286  17.060  -4.971
0.0372 -10.581  16.435  -6.508
-0.6497 -11.218  18.376  -6.179
0.4215 -10.734  19.220  -6.159
0.0372 -11.981  24.672 -11.474
0.1166 -11.198  24.056 -11.009
0.0372 -11.264  24.142  -9.937
0.0372 -10.189  24.361 -11.386
-0.6497 -11.438  22.752 -11.409
0.4215 -11.477  22.600 -12.305
0.0372 -7.465  20.081  14.310
0.1166 -6.893  21.001  14.360
0.0372 -5.910  20.785  14.705
0.0372 -7.484  21.656  15.051
-0.6497 -6.805  21.585  13.060
0.4215 -6.611  22.545  13.087
0.0372 9.627  24.430 -10.444
0.1166 10.579  24.292 -10.045
0.0372 10.687  23.325  -9.522
0.0372 10.584  25.121  -9.317
-0.6497 11.537  24.519 -11.078
0.4215 12.304  24.970 -10.643
0.0372 5.529  18.435 -22.211
0.1166 4.592  18.428 -21.659
0.0372 3.898  19.109 -22.257
0.0372 4.533  18.874 -20.663
-0.6497 4.035  17.099 -21.636
0.4215 4.116  16.662 -22.497
0.0372 -5.894  10.763  22.349
0.1166 -4.910  10.726  21.984
0.0372 -4.685  11.766  21.710
0.0372 -4.662  10.222  21.090
-0.6497 -4.167  10.416  23.153
0.4215 -3.228  10.446  22.779
0.0372 2.636  10.004  23.143
0.1166 3.642   9.874  22.752
0.0372 3.855  10.694  22.023
0.0372 3.872   8.965  22.154
-0.6497 4.559   9.835  23.863
0.4215 4.227  10.310  24.663
0.0372 -1.389 -15.157  26.426
0.1166 -2.069 -15.550  25.635
0.0372 -3.053 -15.854  26.057
0.0372 -1.581 -16.483  25.231
-0.6497 -2.137 -14.609  24.619
0.4215 -2.736 -13.861  24.867
0.0372 -2.388  -6.359  24.422
0.1166 -2.370  -6.052  23.397
0.0372 -1.363  -5.723  23.152
0.0372 -2.980  -5.228  23.362
-0.6497 -2.755  -7.078  22.574
0.4215 -2.097  -7.821  22.682
0.0372 -2.864   4.945  30.127
0.1166 -3.574   5.371  29.440
0.0372 -3.918   6.394  29.801
0.0372 -4.529   4.856  29.602
-0.6497 -3.196   5.370  28.073
0.4215 -3.884   5.857  27.586
0.0372 7.928   9.279  20.841
0.1166 7.084   9.189  20.177
0.0372 6.345   8.734  20.802
0.0372 7.307   8.543  19.364
-0.6497 6.774  10.541  19.834
0.4215 6.584  10.968  20.740
0.0372 0.926   8.466  26.449
0.1166 1.742   8.025  25.870
0.0372 2.513   7.781  26.493
0.0372 2.156   8.754  25.199
-0.6497 1.314   6.917  25.116
0.4215 0.681   6.423  25.634
0.0372 -7.177   1.621  29.989
0.1166 -7.007   2.644  29.676
0.0372 -6.223   3.122  30.251
0.0372 -7.964   3.262  29.782
-0.6497 -6.585   2.499  28.356
0.4215 -6.422   1.534  28.259
0.0372 -25.747  10.688  10.367
0.1166 -25.272  11.182  11.220
0.0372 -24.792  10.541  11.933
0.0372 -26.075  11.661  11.827
-0.6497 -24.428  12.206  10.801
0.4215 -23.613  11.784  10.441
0.0372 -1.785   0.813  28.627
0.1166 -2.472   1.668  28.604
0.0372 -2.114   2.259  29.416
0.0372 -3.518   1.364  28.641
-0.6497 -2.276   2.348  27.355
0.4215 -2.795   3.196  27.497
0.0372 -1.068   0.196  20.844
0.1166 -0.976  -0.560  20.070
0.0372 -1.876  -0.680  19.512
0.0372 -0.656  -1.467  20.527
-0.6497 0.098  -0.135  19.299
0.4215 0.498   0.645  19.836
0.0372 -21.746   6.971  12.216
0.1166 -21.212   7.771  12.696
0.0372 -21.898   8.152  13.470
0.0372 -20.793   8.532  12.039
-0.6497 -20.106   7.208  13.226
0.4215 -19.788   7.904  13.786
0.0372 14.869  -9.134  22.595
0.1166 15.869  -9.190  22.946
0.0372 16.548  -9.556  22.194
0.0372 15.893  -9.975  23.713
-0.6497 16.324  -7.904  23.438
0.4215 15.766  -7.589  24.182
0.0372 -7.862   1.080  15.845
0.1166 -8.280   1.132  14.834
0.0372 -7.932   0.218  14.224
0.0372 -7.993   2.039  14.287
-0.6497 -9.670   1.268  14.917
0.4215 -10.099   0.375  14.777
0.0372 -4.506  -0.316  23.309
0.1166 -4.617  -0.854  22.332
0.0372 -3.992  -1.777  22.101
0.0372 -4.291  -0.092  21.641
-0.6497 -5.993  -0.981  22.024
0.4215 -5.976  -1.074  21.079
0.0372 -11.517  -6.014  23.220
0.1166 -10.607  -6.252  23.889
0.0372 -10.298  -5.376  24.437
0.0372 -9.937  -6.868  23.287
-0.6497 -11.048  -7.167  24.966
0.4215 -11.315  -6.626  25.741
0.0372 -3.385  -4.332  20.857
0.1166 -2.572  -4.839  20.346
0.0372 -1.725  -5.050  21.003
0.0372 -2.129  -4.172  19.616
-0.6497 -3.035  -6.070  19.722
0.4215 -3.867  -5.828  19.364
0.0372 -9.287  -0.444  17.222
0.1166 -9.802  -1.306  17.561
0.0372 -9.095  -2.078  17.626
0.0372 -10.558  -1.558  16.755
-0.6497 -10.486  -1.060  18.806
0.4215 -11.310  -0.690  18.510
0.0372 0.126   8.023  28.791
0.1166 -0.181   8.965  29.248
0.0372 0.683   9.605  29.311
0.0372 -0.554   8.789  30.231
-0.6497 -1.171   9.653  28.544
0.4215 -2.039   9.210  28.554
0.0372 13.860   2.342  27.123
0.1166 13.671   2.873  28.044
0.0372 14.220   3.839  28.238
0.0372 13.961   2.172  28.796
-0.6497 12.279   3.291  28.160
0.4215 11.941   3.490  27.206
0.0372 -6.771  11.091  12.395
0.1166 -7.694  10.629  12.783
0.0372 -8.518  11.196  12.655
0.0372 -7.473  10.302  13.821
-0.6497 -7.690   9.384  12.072
0.4215 -8.166   9.519  11.250
0.0372 -16.524   5.469  25.946
0.1166 -15.452   5.716  25.970
0.0372 -15.435   6.861  25.999
0.0372 -14.817   5.663  25.049
-0.6497 -14.796   5.290  27.178
0.4215 -14.702   6.148  27.615
0.0372 4.559   5.904  30.278
0.1166 3.983   5.186  29.694
0.0372 3.338   4.734  30.457
0.0372 4.578   4.410  29.270
-0.6497 3.236   5.806  28.658
0.4215 3.804   6.116  27.980
0.0372 -0.419   4.888  22.352
0.1166 -0.859   5.483  21.567
0.0372 -0.688   6.504  21.703
0.0372 -1.925   5.389  21.663
-0.6497 -0.578   4.953  20.356
0.4215 -0.870   5.511  19.599
0.0372 4.781  25.013  18.082
0.1166 3.791  25.114  18.379
0.0372 3.182  25.133  17.506
0.0372 3.570  26.132  18.810
-0.6497 3.517  24.099  19.338
0.4215 2.498  23.884  19.335
0.0372 -7.266   8.428  22.529
0.1166 -7.078   8.168  23.503
0.0372 -6.961   9.043  24.135
0.0372 -6.144   7.532  23.573
-0.6497 -8.228   7.571  23.972
0.4215 -8.648   7.005  23.222
0.0372 -7.494   4.034  17.903
0.1166 -6.506   3.796  17.520
0.0372 -5.751   4.509  17.896
0.0372 -6.649   3.902  16.408
-0.6497 -6.232   2.381  17.791
0.4215 -5.510   2.289  18.411
0.0372 6.980   6.946  25.316
0.1166 7.158   6.487  26.355
0.0372 7.999   6.800  26.907
0.0372 7.335   5.460  26.148
-0.6497 5.886   6.605  27.044
0.4215 5.290   6.037  26.501
0.0372 -2.526  12.787  28.957
0.1166 -1.572  13.148  28.749
0.0372 -0.816  12.884  29.520
0.0372 -1.551  14.187  28.627
-0.6497 -1.020  12.638  27.507
0.4215 -1.026  11.672  27.634
0.0372 -1.890   2.139  19.631
0.1166 -2.626   2.390  18.920
0.0372 -2.368   2.096  17.880
0.0372 -2.841   3.481  18.866
-0.6497 -3.750   1.644  19.289
0.4215 -3.943   1.762  20.252
0.0372 -8.112   4.014  25.374
0.1166 -7.593   3.237  24.897
0.0372 -7.683   2.307  25.485
0.0372 -6.631   3.496  24.550
-0.6497 -8.471   2.987  23.800
0.4215 -8.059   2.323  23.261
0.0372 -5.001  12.396  18.725
0.1166 -4.337  11.660  18.315
0.0372 -4.223  10.865  19.056
0.0372 -3.376  12.184  18.039
-0.6497 -4.994  11.170  17.211
0.4215 -4.244  10.815  16.640
0.0372 5.677   4.232  21.899
0.1166 5.611   3.285  21.413
0.0372 4.757   2.710  21.731
0.0372 6.503   2.778  21.735
-0.6497 5.611   3.366  19.973
0.4215 5.409   2.517  19.513
0.0372 11.696  -5.741  27.548
0.1166 11.630  -4.744  27.169
0.0372 11.915  -4.208  28.058
0.0372 10.592  -4.542  27.061
-0.6497 12.334  -4.466  26.024
0.4215 12.197  -3.529  25.844
0.0372 -12.273   4.002  14.569
0.1166 -11.531   3.960  13.819
0.0372 -11.281   2.953  13.398
0.0372 -10.588   4.456  14.192
-0.6497 -12.012   4.656  12.730
0.4215 -11.732   5.591  12.859
0.0372 -0.031  -0.813  26.891
0.1166 -0.318  -1.602  27.572
0.0372 -0.713  -1.119  28.435
0.0372 0.696  -2.043  27.789
-0.6497 -1.239  -2.523  27.033
0.4215 -0.802  -3.025  26.305
0.0372 6.517  21.553   7.720
0.1166 7.539  21.373   8.043
0.0372 8.200  21.126   7.229
0.0372 7.461  20.430   8.701
-0.6497 7.963  22.486   8.773
0.4215 7.261  23.200   8.789
0.0372 6.923  12.778  23.881
0.1166 6.082  12.709  23.225
0.0372 5.945  13.566  22.614
0.0372 5.203  12.582  23.862
-0.6497 6.366  11.574  22.333
0.4215 5.802  10.937  22.728
0.0372 -10.574   7.293  19.723
0.1166 -10.745   8.329  19.461
0.0372 -9.884   8.814  19.109
0.0372 -11.309   8.784  20.272
-0.6497 -11.591   8.450  18.373
0.4215 -12.088   7.597  18.394
0.0372 -8.700   4.079  20.936
0.1166 -8.533   5.168  21.026
0.0372 -9.194   5.690  20.260
0.0372 -7.474   5.376  20.856
-0.6497 -8.977   5.464  22.391
0.4215 -8.880   4.618  22.869
0.0372 -18.072  20.976   3.307
0.1166 -16.965  20.712   3.289
0.0372 -16.774  19.845   3.895
0.0372 -16.442  21.663   3.583
-0.6497 -16.567  20.225   1.967
0.4215 -15.594  20.320   2.020
0.0372 -14.871   8.093  14.612
0.1166 -15.285   7.140  14.391
0.0372 -14.561   6.392  14.762
0.0372 -15.484   6.944  13.326
-0.6497 -16.495   6.929  14.994
0.4215 -16.770   6.002  14.724
0.0372 -4.638  15.826   5.433
0.1166 -4.184  16.676   4.973
0.0372 -4.786  17.504   4.721
0.0372 -3.731  16.373   4.033
-0.6497 -3.052  17.179   5.795
0.4215 -3.353  17.888   6.397
0.0372 -0.252  10.026   9.106
0.1166 -0.954  10.510   8.501
0.0372 -1.605  11.010   9.292
0.0372 -1.530   9.828   7.960
-0.6497 -0.339  11.532   7.798
0.4215 -0.611  11.357   6.879
0.0372 -15.416 -14.218  20.675
0.1166 -15.822 -15.133  20.222
0.0372 -16.445 -14.901  19.377
0.0372 -16.471 -15.644  20.855
-0.6497 -14.669 -15.771  19.778
0.4215 -15.022 -16.509  19.276
0.0372 -1.505  -7.166  17.085
0.1166 -1.879  -7.885  16.375
0.0372 -2.201  -8.769  16.809
0.0372 -1.057  -8.034  15.672
-0.6497 -2.903  -7.273  15.636
0.4215 -3.391  -6.970  16.451
0.0372 -7.182  10.095   1.962
0.1166 -8.065  10.629   1.653
0.0372 -8.424  11.215   2.512
0.0372 -8.804   9.881   1.364
-0.6497 -7.712  11.509   0.525
0.4215 -8.540  11.885   0.100
0.0372 -11.170   8.465  11.466
0.1166 -11.902   8.260  12.256
0.0372 -12.882   7.898  11.844
0.0372 -12.096   9.173  12.963
-0.6497 -11.491   7.275  13.223
0.4215 -11.338   7.721  14.061
0.0372 -15.261  -0.857   6.545
0.1166 -14.564  -0.741   7.385
0.0372 -14.388  -1.660   7.850
0.0372 -15.142  -0.021   8.089
-0.6497 -13.285  -0.217   6.905
0.4215 -13.498   0.681   6.601
0.0372 -11.520   2.754  21.783
0.1166 -12.045   1.802  21.340
0.0372 -11.997   1.961  20.240
0.0372 -13.058   1.623  21.721
-0.6497 -11.327   0.630  21.668
0.4215 -11.419   0.429  22.606
0.0372 -20.253  11.164  -4.705
0.1166 -21.238  10.900  -5.175
0.0372 -21.199  10.907  -6.278
0.0372 -21.933  11.698  -4.826
-0.6497 -21.845   9.740  -4.588
0.4215 -22.158  10.036  -3.709
0.0372 -18.440 -12.440   0.931
0.1166 -17.676 -12.099   1.612
0.0372 -17.901 -11.093   1.907
0.0372 -16.742 -12.139   1.115
-0.6497 -17.601 -12.859   2.834
0.4215 -17.696 -12.344   3.641
0.0372 -23.599   2.320  14.389
0.1166 -23.126   1.811  13.531
0.0372 -23.889   1.286  12.974
0.0372 -22.418   1.078  14.009
-0.6497 -22.443   2.665  12.690
0.4215 -21.875   2.123  12.099
0.0372 -9.659  22.664   2.878
0.1166 -9.976  23.092   3.858
0.0372 -11.063  23.173   3.835
0.0372 -9.503  24.066   4.134
-0.6497 -9.673  22.127   4.924
0.4215 -10.459  22.126   5.482
0.0372 4.049  -3.742  16.018
0.1166 4.517  -3.540  17.003
0.0372 5.132  -2.669  16.995
0.0372 5.165  -4.415  17.229
-0.6497 3.488  -3.478  18.014
0.4215 3.404  -4.365  18.398
0.0372 -18.297   2.316   6.584
0.1166 -19.064   2.625   5.921
0.0372 -19.517   3.580   6.304
0.0372 -19.874   1.842   5.805
-0.6497 -18.573   2.924   4.591
0.4215 -18.695   3.857   4.377
0.0372 -24.980   6.264   9.372
0.1166 -24.578   6.739   8.460
0.0372 -23.828   7.463   8.701
0.0372 -25.408   7.268   7.928
-0.6497 -24.007   5.705   7.594
0.4215 -23.783   4.990   8.163
0.0372 -7.107   6.076  12.133
0.1166 -6.008   6.090  12.339
0.0372 -5.442   5.640  11.489
0.0372 -5.810   5.461  13.227
-0.6497 -5.614   7.448  12.640
0.4215 -6.408   8.014  12.442
0.0372 -16.689  15.402  16.890
0.1166 -16.302  14.411  16.863
0.0372 -15.542  14.366  16.076
0.0372 -17.233  13.777  16.654
-0.6497 -15.483  13.977  17.911
0.4215 -14.994  14.734  18.201
0.0372 -13.540  -5.060  24.016
0.1166 -14.522  -4.899  23.551
0.0372 -15.415  -4.889  24.187
0.0372 -14.968  -5.555  22.871
-0.6497 -14.519  -3.642  22.975
0.4215 -14.189  -2.931  23.613
0.0372 -9.206   1.412  20.646
0.1166 -8.207   0.936  20.620
0.0372 -7.537   1.515  20.016
0.0372 -8.216  -0.189  20.397
-0.6497 -7.733   1.055  21.976
0.4215 -7.131   0.279  22.145
0.0372 -8.774  26.195   4.689
0.1166 -9.243  26.837   3.905
0.0372 -8.667  27.760   3.946
0.0372 -10.299  26.947   4.105
-0.6497 -9.045  26.279   2.627
0.4215 -8.369  26.769   2.112
0.0372 -24.118   4.747   1.829
0.1166 -23.622   5.437   1.172
0.0372 -23.371   6.297   1.721
0.0372 -24.348   5.701   0.457
-0.6497 -22.456   4.859   0.598
0.4215 -22.362   5.254  -0.292
0.0372 -12.531  12.007  20.407
0.1166 -12.567  12.993  20.771
0.0372 -13.124  13.024  21.693
0.0372 -13.012  13.698  20.094
-0.6497 -11.307  13.556  20.983
0.4215 -11.400  14.376  21.420
0.0372 -9.516  11.810 -14.133
0.1166 -8.906  12.220 -14.945
0.0372 -7.922  12.466 -14.512
0.0372 -9.339  13.174 -15.397
-0.6497 -8.856  11.159 -15.923
0.4215 -9.854  10.913 -16.008
0.0372 -3.993   7.062  16.767
0.1166 -4.333   6.771  15.837
0.0372 -5.392   6.531  15.964
0.0372 -3.628   6.044  15.454
-0.6497 -4.333   7.855  14.898
0.4215 -4.787   7.569  14.077
0.0372 -3.019   9.451  -1.123
0.1166 -2.242   9.218  -0.357
0.0372 -1.816   8.228  -0.448
0.0372 -2.830   9.160   0.568
-0.6497 -1.369  10.255  -0.268
0.4215 -0.733   9.999   0.379
0.0372 -13.318   9.679  -3.680
0.1166 -12.602  10.480  -3.520
0.0372 -12.042  10.280  -2.614
0.0372 -13.078  11.428  -3.451
-0.6497 -11.714  10.600  -4.616
0.4215 -12.145  10.865  -5.426
0.0372 -17.882   6.596 -18.379
0.1166 -16.879   7.097 -18.514
0.0372 -16.258   6.996 -17.603
0.0372 -16.977   8.151 -18.547
-0.6497 -16.228   6.712 -19.690
0.4215 -16.826   6.689 -20.439
0.0372 -23.201  15.272   9.073
0.1166 -23.915  15.957   9.624
0.0372 -24.760  15.294   9.902
0.0372 -24.420  16.635   8.959
-0.6497 -23.393  16.496  10.781
0.4215 -23.240  15.805  11.425
0.0372 1.483  -6.314  23.081
0.1166 2.243  -5.848  23.767
0.0372 2.183  -4.726  23.765
0.0372 3.236  -6.057  23.452
-0.6497 1.927  -6.471  25.014
0.4215 2.118  -7.420  24.890
0.0372 -18.438  -3.501  11.761
0.1166 -18.948  -3.737  10.828
0.0372 -19.662  -2.931  10.594
0.0372 -19.524  -4.674  10.889
-0.6497 -17.901  -3.815   9.808
0.4215 -17.431  -2.995   9.724
0.0372 -9.252   8.344   5.744
0.1166 -9.034   8.308   4.651
0.0372 -9.566   9.223   4.260
0.0372 -9.517   7.444   4.237
-0.6497 -7.627   8.410   4.408
0.4215 -7.203   7.523   4.707
0.0372 -14.903  12.614  15.015
0.1166 -15.229  11.586  14.790
0.0372 -16.238  11.625  14.334
0.0372 -15.379  11.099  15.692
-0.6497 -14.259  10.849  13.976
