1588

-0.1269 8.193  19.899   6.010
-0.1269 9.719  18.619   7.481
-0.1349 9.540  19.583   6.496
0.1301 6.007  19.515   6.307
0.1301 8.688  17.524   9.013
0.0441 6.018  18.371   9.604
0.0441 5.069  18.217   8.093
0.0441 6.084  16.897   8.732
0.1301 8.036  20.647   5.248
0.1301 10.678  18.199   7.680
0.1301 10.459  19.975   5.991
-0.0772 3.410 -10.454 -16.332
-0.1309 3.861 -10.222 -15.015
-0.1309 4.169  -9.996 -17.449
-0.0537 2.233 -11.408 -16.498
-0.1269 5.010  -9.506 -14.867
-0.1269 5.294  -9.189 -17.280
-0.1349 5.757  -8.957 -15.969
0.1301 3.377 -10.836 -14.208
0.1301 3.743 -10.169 -18.481
0.0441 2.219 -11.706 -17.540
0.0441 2.344 -12.241 -15.895
0.0441 1.226 -10.996 -16.318
0.1301 5.305  -9.366 -13.894
0.1301 5.784  -8.734 -18.135
0.1301 6.737  -8.641 -15.682
-0.0772 -10.959  10.287  15.441
-0.1309 -11.037  10.509  16.822
-0.1309 -10.298   9.113  14.926
-0.0537 -11.274  11.383  14.453
-0.1269 -10.666   9.496  17.740
-0.1269 -10.071   8.050  15.809
-0.1349 -10.280   8.273  17.180
0.1301 -11.312  11.553  17.197
0.1301 -10.139   9.015  13.871
0.0441 -11.372  11.102  13.446
0.0441 -12.218  11.920  14.711
0.0441 -10.477  12.087  14.434
0.1301 -10.847   9.674  18.764
0.1301 -9.795   7.022  15.437
0.1301 -10.141   7.447  17.801
-0.0772 11.831 -11.927  13.006
-0.1309 11.681 -12.493  14.277
-0.1309 10.893 -10.964  12.501
-0.0537 12.818 -12.501  12.079
-0.1269 10.716 -11.938  15.104
-0.1269 9.902 -10.468  13.315
-0.1349 9.820 -11.005  14.636
0.1301 12.388 -13.260  14.632
0.1301 10.942 -10.793  11.455
0.0441 12.351 -12.979  11.261
0.0441 13.443 -11.761  11.644
0.0441 13.497 -13.213  12.601
0.1301 10.665 -12.225  16.134
0.1301 9.235  -9.738  12.998
0.1301 9.123 -10.554  15.354
-0.0772 1.167  24.589   9.101
-0.1309 1.445  25.794   8.466
-0.1309 2.247  24.027   9.780
-0.0537 -0.188  23.943   8.931
-0.1269 2.760  26.372   8.531
-0.1269 3.544  24.541   9.839
-0.1349 3.755  25.775   9.265
0.1301 0.593  26.225   7.965
0.1301 2.009  23.021  10.212
0.0441 -0.182  22.876   8.872
0.0441 -0.688  24.106   9.927
0.0441 -0.948  24.233   8.229
0.1301 3.007  27.303   8.001
0.1301 4.349  24.094  10.403
0.1301 4.739  26.220   9.370
-0.0772 -10.053  -5.748  17.879
-0.1309 -9.883  -5.467  19.199
-0.1309 -10.076  -7.097  17.473
-0.0537 -9.955  -4.682  16.781
-0.1269 -9.810  -6.409  20.214
-0.1269 -10.133  -8.105  18.491
-0.1349 -10.032  -7.742  19.880
0.1301 -9.677  -4.452  19.484
0.1301 -10.148  -7.324  16.422
0.0441 -9.113  -4.759  16.126
0.0441 -10.796  -4.716  16.056
0.0441 -9.890  -3.673  17.152
0.1301 -9.789  -6.064  21.275
0.1301 -10.300  -9.074  18.130
0.1301 -10.249  -8.542  20.657
-0.0772 4.051   0.507  30.850
-0.1309 2.668   0.302  30.670
-0.1309 4.598   1.783  30.545
-0.0537 5.079  -0.687  31.112
-0.1269 1.848   1.378  30.393
-0.1269 3.795   2.910  30.188
-0.1349 2.374   2.657  30.131
0.1301 2.216  -0.686  30.769
0.1301 5.654   1.977  30.478
0.0441 5.628  -0.515  32.049
0.0441 4.634  -1.657  31.335
0.0441 5.773  -0.892  30.234
0.1301 0.786   1.231  30.437
0.1301 4.215   3.883  29.988
0.1301 1.692   3.510  29.988
-0.0772 18.397   8.742  10.049
-0.1309 19.211   8.383   8.934
-0.1309 18.861   8.814  11.345
-0.0537 16.926   8.846   9.781
-0.1269 20.593   8.264   9.199
-0.1269 20.271   8.770  11.499
-0.1349 21.162   8.523  10.425
0.1301 18.836   8.376   7.906
0.1301 18.137   9.043  12.125
0.0441 16.336   9.059  10.710
0.0441 16.695   9.623   9.038
0.0441 16.475   7.909   9.430
0.1301 21.265   8.054   8.341
0.1301 20.649   8.977  12.432
0.1301 22.212   8.544  10.549
-0.0772 0.488  13.908   1.194
-0.1309 1.199  13.375   2.268
-0.1309 1.102  14.496   0.073
-0.0537 -1.024  14.025   1.107
-0.1269 2.560  13.142   2.089
-0.1269 2.510  14.332  -0.021
-0.1349 3.191  13.550   0.926
0.1301 0.638  12.950   3.171
0.1301 0.654  15.084  -0.672
0.0441 -1.497  14.236   0.145
0.0441 -1.304  13.038   1.522
0.0441 -1.283  14.873   1.779
0.1301 3.009  12.653   2.933
0.1301 2.964  14.543  -0.962
0.1301 4.230  13.281   0.768
-0.0772 17.117   3.042   8.517
-0.1309 18.072   4.015   8.212
-0.1309 16.378   3.116   9.682
-0.0537 16.940   1.807   7.633
-0.1269 18.240   5.133   9.082
-0.1269 16.621   4.186  10.594
-0.1349 17.462   5.204  10.276
0.1301 18.634   4.005   7.271
0.1301 15.566   2.371   9.845
0.0441 16.780   0.866   8.108
0.0441 16.149   1.956   6.938
0.0441 17.763   1.755   6.964
0.1301 19.006   5.901   8.956
0.1301 15.936   4.366  11.456
0.1301 17.623   6.024  10.964
-0.0772 5.475  15.209  14.968
-0.1309 4.868  14.391  14.031
-0.1309 4.738  15.864  15.844
-0.0537 6.948  15.446  14.989
-0.1269 3.506  14.324  13.860
-0.1269 3.317  15.748  15.812
-0.1349 2.743  14.997  14.799
0.1301 5.424  13.779  13.359
0.1301 5.251  16.445  16.676
0.0441 7.081  16.444  14.552
0.0441 7.318  15.316  15.981
0.0441 7.546  14.698  14.358
0.1301 3.119  13.761  13.042
0.1301 2.735  16.248  16.555
0.1301 1.668  14.816  14.909
-0.0772 7.842  19.676 -11.881
-0.1309 8.688  20.800 -12.100
-0.1309 6.514  19.724 -12.286
-0.0537 8.266  18.537 -10.896
-0.1269 8.205  21.902 -12.821
-0.1269 6.106  20.791 -12.996
-0.1349 6.904  21.903 -13.331
0.1301 9.659  20.765 -11.613
0.1301 5.918  18.823 -12.128
0.0441 8.734  18.961  -9.949
0.0441 7.402  17.966 -10.585
0.0441 9.037  17.878 -11.370
0.1301 8.874  22.687 -12.968
0.1301 5.124  20.843 -13.350
0.1301 6.456  22.706 -13.908
-0.0772 3.797  27.578   5.200
-0.1309 4.774  28.538   5.587
-0.1309 4.053  26.206   5.257
-0.0537 2.413  28.079   4.915
-0.1269 6.068  28.093   5.937
-0.1269 5.328  25.797   5.708
-0.1349 6.297  26.736   6.029
0.1301 4.480  29.556   5.482
0.1301 3.278  25.522   4.881
0.0441 1.916  28.512   5.821
0.0441 2.533  28.673   4.015
0.0441 1.799  27.231   4.514
0.1301 6.887  28.753   6.102
0.1301 5.451  24.721   5.608
0.1301 7.263  26.453   6.359
-0.0772 2.096  18.635 -17.810
-0.1309 2.181  19.939 -18.288
-0.1309 1.003  18.258 -16.968
-0.0537 3.054  17.584 -18.294
-0.1269 1.219  20.955 -17.975
-0.1269 -0.009  19.182 -16.721
-0.1349 0.140  20.517 -17.169
0.1301 2.944  20.108 -19.032
0.1301 0.901  17.249 -16.569
0.0441 2.704  17.386 -19.359
0.0441 4.107  17.855 -18.416
0.0441 3.021  16.603 -17.860
0.1301 1.265  21.975 -18.310
0.1301 -0.972  18.928 -16.306
0.1301 -0.726  21.207 -17.028
-0.0772 1.939  17.885 -22.906
-0.1309 3.072  18.510 -22.413
-0.1309 0.727  18.593 -23.078
-0.0537 2.045  16.451 -23.243
-0.1269 2.988  19.871 -22.176
-0.1269 0.607  19.924 -22.702
-0.1349 1.753  20.531 -22.252
0.1301 3.998  17.909 -22.424
0.1301 -0.121  17.978 -23.388
0.0441 1.110  16.025 -23.419
0.0441 2.616  16.400 -24.134
0.0441 2.544  15.785 -22.499
0.1301 3.835  20.464 -21.928
0.1301 -0.358  20.380 -22.815
0.1301 1.710  21.647 -22.165
-0.0772 22.402   6.937 -17.389
-0.1309 22.514   6.941 -15.999
-0.1309 23.511   7.327 -18.179
-0.0537 21.066   6.507 -18.013
-0.1269 23.714   7.377 -15.380
-0.1269 24.689   7.794 -17.547
-0.1349 24.853   7.676 -16.170
0.1301 21.649   6.552 -15.368
0.1301 23.372   7.325 -19.252
0.0441 21.111   5.738 -18.783
0.0441 20.413   6.079 -17.300
0.0441 20.522   7.327 -18.458
0.1301 23.745   7.350 -14.309
0.1301 25.433   8.182 -18.179
0.1301 25.840   7.908 -15.769
-0.0772 11.110   8.037 -14.419
-0.1309 10.258   7.213 -13.675
-0.1309 12.439   8.331 -13.924
-0.0537 10.643   8.679 -15.780
-0.1269 10.622   6.700 -12.451
-0.1269 12.806   7.747 -12.675
-0.1349 11.907   6.935 -11.947
0.1301 9.296   6.937 -14.050
0.1301 13.054   8.821 -14.568
0.0441 9.609   8.386 -15.928
0.0441 10.739   9.732 -15.706
0.0441 11.302   8.273 -16.535
0.1301 9.934   6.055 -11.945
0.1301 13.820   7.809 -12.275
0.1301 12.141   6.428 -10.967
-0.0772 16.851  -3.165   6.408
-0.1309 17.188  -3.154   5.029
-0.1309 16.071  -2.142   6.936
-0.0537 17.320  -4.371   7.220
-0.1269 16.882  -2.011   4.245
-0.1269 15.654  -1.081   6.131
-0.1349 16.097  -1.002   4.820
0.1301 17.844  -3.955   4.630
0.1301 15.775  -2.197   7.983
0.0441 18.415  -4.390   7.213
0.0441 17.020  -4.171   8.333
0.0441 16.932  -5.337   7.037
0.1301 17.264  -1.985   3.227
0.1301 15.111  -0.247   6.540
0.1301 15.845  -0.161   4.091
-0.0772 2.801  27.841  -3.134
-0.1309 3.637  28.622  -3.940
-0.1309 1.697  28.503  -2.472
-0.0537 3.069  26.350  -2.967
-0.1269 3.451  30.017  -4.084
-0.1269 1.481  29.876  -2.660
-0.1349 2.413  30.687  -3.401
0.1301 4.545  28.152  -4.388
0.1301 1.010  27.946  -1.840
0.0441 4.057  25.932  -3.298
0.0441 2.986  26.084  -1.904
0.0441 2.357  25.735  -3.473
0.1301 4.207  30.550  -4.605
0.1301 0.576  30.298  -2.152
0.1301 2.263  31.710  -3.533
-0.0772 0.738  20.500  -8.586
-0.1309 0.931  21.310  -7.480
-0.1309 1.703  20.426  -9.604
-0.0537 -0.588  19.866  -8.875
-0.1269 2.197  21.909  -7.259
-0.1269 2.973  20.979  -9.399
-0.1349 3.210  21.723  -8.173
0.1301 0.207  21.363  -6.634
0.1301 1.427  20.035 -10.549
0.0441 -1.384  20.654  -9.082
0.0441 -0.603  19.231  -9.761
0.0441 -0.848  19.395  -7.920
0.1301 2.280  22.584  -6.385
0.1301 3.810  20.825 -10.170
0.1301 4.191  22.208  -7.982
-0.0772 -1.789  14.682 -15.639
-0.1309 -2.660  15.811 -15.723
-0.1309 -1.854  13.772 -14.548
-0.0537 -0.962  14.341 -16.835
-0.1269 -3.586  16.006 -14.683
-0.1269 -2.744  13.989 -13.523
-0.1349 -3.600  15.119 -13.576
0.1301 -2.659  16.496 -16.661
0.1301 -1.241  12.885 -14.546
0.0441 -1.666  13.957 -17.578
0.0441 -0.479  15.205 -17.319
0.0441 -0.161  13.575 -16.784
0.1301 -4.279  16.849 -14.740
0.1301 -2.852  13.250 -12.738
0.1301 -4.261  15.348 -12.729
-0.0772 -24.648  -4.656   2.522
-0.1309 -25.182  -4.830   1.245
-0.1309 -24.574  -3.416   3.112
-0.0537 -24.095  -5.762   3.341
-0.1269 -25.625  -3.741   0.521
-0.1269 -25.057  -2.298   2.417
-0.1349 -25.581  -2.464   1.085
0.1301 -25.136  -5.841   0.743
0.1301 -24.277  -3.213   4.132
0.0441 -23.476  -6.558   2.767
0.0441 -23.523  -5.479   4.124
0.0441 -24.965  -6.286   3.784
0.1301 -26.075  -3.898  -0.496
0.1301 -25.091  -1.344   2.943
0.1301 -25.962  -1.650   0.498
-0.0772 6.687   6.857  -2.761
-0.1309 7.104   6.942  -4.072
-0.1309 6.225   5.654  -2.191
-0.0537 6.663   8.127  -1.887
-0.1269 6.984   5.870  -4.965
-0.1269 6.208   4.565  -3.034
-0.1349 6.646   4.643  -4.421
0.1301 7.417   7.855  -4.509
0.1301 5.980   5.568  -1.140
0.0441 7.623   8.093  -1.360
0.0441 6.636   8.992  -2.426
0.0441 5.904   8.262  -1.147
0.1301 7.431   5.877  -5.997
0.1301 5.939   3.635  -2.643
0.1301 6.550   3.768  -5.099
-0.0772 7.987  28.095   1.217
-0.1309 7.726  29.354   0.638
-0.1309 7.064  27.007   1.054
-0.0537 9.202  27.812   2.060
-0.1269 6.600  29.509  -0.167
-0.1269 5.894  27.252   0.249
-0.1349 5.634  28.507  -0.316
0.1301 8.467  30.173   0.671
0.1301 7.350  25.958   1.279
0.0441 8.891  28.115   3.042
0.0441 9.408  26.786   2.108
0.0441 10.130  28.303   1.660
0.1301 6.397  30.450  -0.748
0.1301 5.327  26.346  -0.028
0.1301 4.745  28.649  -0.919
-0.0772 4.123  26.124  -7.444
-0.1309 4.541  25.390  -6.262
-0.1309 4.722  27.334  -7.754
-0.0537 3.096  25.611  -8.392
-0.1269 5.650  25.903  -5.550
-0.1269 5.782  27.806  -7.000
-0.1349 6.299  27.101  -5.954
0.1301 4.171  24.452  -5.986
0.1301 4.307  28.007  -8.566
0.0441 2.864  24.516  -8.381
0.0441 2.151  26.095  -8.152
0.0441 3.439  25.746  -9.446
0.1301 6.104  25.365  -4.673
0.1301 6.151  28.785  -7.263
0.1301 7.217  27.436  -5.431
-0.0772 -0.304   7.301 -25.358
-0.1309 -0.936   7.417 -26.609
-0.1309 0.708   8.256 -24.943
-0.0537 -0.488   6.004 -24.477
-0.1269 -0.709   8.517 -27.374
-0.1269 0.921   9.341 -25.800
-0.1349 0.237   9.496 -27.019
0.1301 -1.528   6.627 -27.007
0.1301 1.278   8.171 -24.052
0.0441 -0.642   6.213 -23.434
0.0441 -1.355   5.414 -24.903
0.0441 0.390   5.374 -24.608
0.1301 -1.229   8.483 -28.365
0.1301 1.773  10.029 -25.428
0.1301 0.229  10.482 -27.606
-0.0772 -1.494  22.258  -4.850
-0.1309 -1.693  23.158  -5.861
-0.1309 -0.499  22.540  -3.984
-0.0537 -2.391  21.090  -4.652
-0.1269 -0.952  24.326  -6.078
-0.1269 0.319  23.657  -4.086
-0.1349 0.126  24.558  -5.197
0.1301 -2.617  22.991  -6.405
0.1301 -0.405  21.924  -3.136
0.0441 -3.441  21.341  -4.408
0.0441 -2.338  20.431  -5.468
0.0441 -2.057  20.437  -3.845
0.1301 -1.241  25.024  -6.873
0.1301 1.086  23.832  -3.360
0.1301 0.658  25.469  -5.308
-0.0772 28.455   3.700  -1.471
-0.1309 27.099   3.881  -1.078
-0.1309 28.775   2.944  -2.539
-0.0537 29.558   4.279  -0.653
-0.1269 26.125   3.407  -1.862
-0.1269 27.796   2.405  -3.361
-0.1349 26.464   2.696  -3.004
0.1301 26.760   4.447  -0.246
0.1301 29.838   2.686  -2.682
0.0441 29.854   5.279  -0.999
0.0441 29.322   4.272   0.430
0.0441 30.463   3.665  -0.706
0.1301 25.109   3.660  -1.588
0.1301 28.055   1.863  -4.227
0.1301 25.720   2.316  -3.762
-0.0772 15.205  16.259 -18.738
-0.1309 13.867  15.925 -18.514
-0.1309 15.848  17.003 -17.718
-0.0537 15.957  15.911 -19.963
-0.1269 13.173  16.286 -17.344
-0.1269 15.189  17.314 -16.503
-0.1349 13.844  16.999 -16.362
0.1301 13.300  15.379 -19.306
0.1301 16.862  17.281 -17.871
0.0441 16.555  15.054 -19.855
0.0441 15.225  15.812 -20.759
0.0441 16.602  16.807 -20.305
0.1301 12.171  16.140 -17.361
0.1301 15.674  18.049 -15.825
0.1301 13.250  17.295 -15.520
-0.0772 4.271  10.955  -5.985
-0.1309 2.904  11.201  -5.993
-0.1309 5.067  11.423  -7.094
-0.0537 4.925  10.201  -4.846
-0.1269 2.249  11.793  -7.068
-0.1269 4.425  11.942  -8.197
-0.1349 3.039  12.295  -8.107
0.1301 2.243  10.902  -5.109
0.1301 6.173  11.303  -7.053
0.0441 5.257  10.917  -4.096
0.0441 4.173   9.497  -4.423
0.0441 5.790   9.646  -5.196
0.1301 1.178  12.074  -7.016
0.1301 5.022  12.274  -9.038
0.1301 2.553  12.760  -8.942
-0.0772 17.817  -4.832  -7.154
-0.1309 17.957  -6.105  -6.647
-0.1309 18.838  -4.342  -8.008
-0.0537 16.523  -4.041  -6.920
-0.1269 19.079  -6.906  -6.858
-0.1269 19.968  -5.156  -8.315
-0.1349 20.058  -6.405  -7.714
0.1301 17.208  -6.423  -5.957
0.1301 18.595  -3.401  -8.473
0.0441 16.013  -4.395  -6.050
0.0441 16.867  -3.008  -6.676
0.0441 15.883  -3.967  -7.760
0.1301 19.147  -7.889  -6.409
0.1301 20.793  -4.788  -8.888
0.1301 20.882  -6.996  -7.954
-0.0772 -11.163  -4.158  23.749
-0.1309 -10.007  -3.292  23.462
-0.1309 -12.199  -4.174  22.793
-0.0537 -11.193  -5.021  24.950
-0.1269 -9.975  -2.686  22.188
-0.1269 -12.057  -3.574  21.560
-0.1349 -10.899  -2.883  21.264
0.1301 -9.110  -3.145  24.121
0.1301 -13.038  -4.715  23.057
0.0441 -11.975  -4.622  25.563
0.0441 -11.369  -6.079  24.664
0.0441 -10.252  -4.980  25.510
0.1301 -9.131  -2.049  22.023
0.1301 -12.878  -3.711  20.855
0.1301 -10.738  -2.456  20.273
-0.0772 -3.962  23.339  -0.486
-0.1309 -3.119  22.916   0.494
-0.1309 -4.775  24.516  -0.286
-0.0537 -3.912  22.646  -1.855
-0.1269 -3.018  23.594   1.754
-0.1269 -4.759  25.178   0.968
-0.1349 -3.854  24.737   1.975
0.1301 -2.479  22.061   0.227
0.1301 -5.381  24.902  -1.081
0.0441 -4.892  22.518  -2.322
0.0441 -3.206  23.124  -2.632
0.0441 -3.542  21.641  -1.647
0.1301 -2.358  23.303   2.545
0.1301 -5.506  26.034   1.096
0.1301 -3.753  25.137   2.991
-0.0772 -9.384  10.491   2.906
-0.1309 -10.095  10.911   4.064
-0.1309 -8.238   9.713   3.007
-0.0537 -9.816  10.947   1.558
-0.1269 -9.618  10.567   5.349
-0.1269 -7.793   9.263   4.320
-0.1349 -8.463   9.738   5.463
0.1301 -10.991  11.620   4.106
0.1301 -7.765   9.297   2.148
0.0441 -8.999  10.843   0.776
0.0441 -10.715  10.411   1.223
0.0441 -10.064  12.058   1.659
0.1301 -10.244  10.746   6.192
0.1301 -6.973   8.493   4.507
0.1301 -8.121   9.372   6.396
-0.0772 12.151  26.653  -8.268
-0.1309 11.481  25.594  -7.710
-0.1309 12.188  27.876  -7.568
-0.0537 12.788  26.469  -9.659
-0.1269 10.777  25.724  -6.498
-0.1269 11.408  28.052  -6.401
-0.1349 10.740  26.941  -5.817
0.1301 11.574  24.622  -8.185
0.1301 12.627  28.807  -7.981
0.0441 12.190  25.926 -10.350
0.0441 12.867  27.481 -10.090
0.0441 13.766  26.031  -9.666
0.1301 10.346  24.839  -6.031
0.1301 11.328  29.045  -5.935
0.1301 10.255  26.971  -4.820
-0.0772 23.795  18.232  -3.748
-0.1309 25.113  17.986  -4.311
-0.1309 23.628  18.314  -2.320
-0.0537 22.623  18.395  -4.739
-0.1269 26.210  17.798  -3.485
-0.1269 24.756  18.193  -1.498
-0.1349 26.027  17.965  -2.111
0.1301 25.286  17.802  -5.409
0.1301 22.695  18.267  -1.817
0.0441 21.637  18.115  -4.213
0.0441 22.391  19.483  -4.941
0.0441 22.801  17.828  -5.672
0.1301 27.157  17.594  -3.976
0.1301 24.595  18.416  -0.419
0.1301 26.856  17.873  -1.511
-0.0772 -6.050   5.119 -28.232
-0.1309 -4.706   5.291 -27.825
-0.1309 -7.119   5.061 -27.331
-0.0537 -6.408   5.224 -29.685
-0.1269 -4.359   5.235 -26.505
-0.1269 -6.793   5.187 -25.968
-0.1349 -5.413   5.198 -25.535
0.1301 -3.886   5.440 -28.517
0.1301 -8.147   4.949 -27.648
0.0441 -7.273   4.664 -29.950
0.0441 -6.481   6.265 -30.038
0.0441 -5.684   4.752 -30.301
0.1301 -3.343   5.271 -26.164
0.1301 -7.516   5.179 -25.176
0.1301 -5.162   5.235 -24.435
-0.0772 0.942  25.145   0.612
-0.1309 1.963  26.124   0.731
-0.1309 1.124  23.993   1.342
-0.0537 -0.285  25.238  -0.348
-0.1269 3.150  25.974   1.474
-0.1269 2.291  23.764   2.034
-0.1349 3.257  24.833   2.242
0.1301 1.834  27.055   0.149
0.1301 0.334  23.255   1.264
0.0441 -0.530  24.298  -0.873
0.0441 -1.124  25.649   0.133
0.0441 -0.024  26.049  -1.102
0.1301 3.757  26.845   1.543
0.1301 2.432  22.881   2.601
0.1301 4.100  24.782   2.847
-0.0772 20.501  11.151 -18.487
-0.1309 19.236  11.691 -18.086
-0.1309 20.678  10.630 -19.802
-0.0537 21.670  11.080 -17.541
-0.1269 18.191  11.585 -19.015
-0.1269 19.668  10.762 -20.780
-0.1349 18.385  11.187 -20.338
0.1301 19.242  12.123 -17.048
0.1301 21.578  10.076 -20.012
0.0441 22.217  10.111 -17.675
0.0441 22.412  11.842 -17.776
0.0441 21.344  11.262 -16.558
0.1301 17.151  11.862 -18.711
0.1301 19.772  10.400 -21.832
0.1301 17.549  11.177 -21.069
-0.0772 -11.882  16.770 -20.282
-0.1309 -12.089  17.850 -21.179
-0.1309 -11.234  16.977 -19.067
-0.0537 -12.616  15.495 -20.586
-0.1269 -11.555  19.122 -20.896
-0.1269 -10.725  18.296 -18.784
-0.1349 -10.876  19.378 -19.700
0.1301 -12.642  17.747 -22.064
0.1301 -11.220  16.158 -18.333
0.0441 -13.634  15.665 -20.995
0.0441 -12.137  14.871 -21.319
0.0441 -12.740  14.808 -19.736
0.1301 -11.715  19.983 -21.597
0.1301 -10.230  18.463 -17.861
0.1301 -10.451  20.329 -19.492
-0.0772 9.467   4.870 -27.264
-0.1309 10.824   4.896 -27.751
-0.1309 9.028   3.816 -26.524
-0.0537 8.497   6.077 -27.347
-0.1269 11.699   3.882 -27.513
-0.1269 9.896   2.738 -26.287
-0.1349 11.288   2.786 -26.673
0.1301 11.226   5.835 -28.237
0.1301 7.977   3.816 -26.263
0.0441 7.450   5.696 -27.387
0.0441 8.724   6.750 -26.498
0.0441 8.654   6.666 -28.244
0.1301 12.713   3.949 -27.914
0.1301 9.559   1.984 -25.583
0.1301 12.028   2.059 -26.360
-0.0772 -22.515  18.663   5.976
-0.1309 -22.398  20.016   5.710
-0.1309 -21.909  17.727   5.165
-0.0537 -23.466  18.213   7.074
-0.1269 -21.733  20.439   4.513
-0.1269 -21.071  18.140   4.212
-0.1349 -21.113  19.439   3.704
0.1301 -22.953  20.766   6.259
0.1301 -21.922  16.615   5.373
0.0441 -23.968  19.092   7.356
0.0441 -24.228  17.467   6.770
0.0441 -22.962  17.820   7.929
0.1301 -21.837  21.461   4.082
0.1301 -20.576  17.339   3.636
0.1301 -20.562  19.672   2.831
-0.0772 -7.558  29.137  -0.341
-0.1309 -8.237  27.896  -0.231
-0.1309 -6.643  29.288  -1.392
-0.0537 -7.984  30.306   0.559
-0.1269 -7.838  26.798  -1.076
-0.1269 -6.360  28.284  -2.303
-0.1349 -6.950  27.004  -2.064
0.1301 -8.905  27.711   0.570
0.1301 -6.275  30.271  -1.579
0.0441 -7.597  30.100   1.585
0.0441 -7.458  31.244   0.196
0.0441 -9.090  30.490   0.532
0.1301 -8.256  25.776  -0.930
0.1301 -5.780  28.440  -3.165
0.1301 -6.671  26.180  -2.695
-0.0772 0.229  18.848   2.257
-0.1309 -0.899  18.327   2.958
-0.1309 0.501  20.236   2.414
-0.0537 1.153  17.879   1.475
-0.1269 -1.797  19.186   3.618
-0.1269 -0.459  21.099   3.010
-0.1349 -1.640  20.560   3.546
0.1301 -1.066  17.266   2.963
0.1301 1.387  20.706   1.924
0.0441 1.606  17.121   2.104
0.0441 0.585  17.372   0.740
0.0441 1.931  18.490   1.010
0.1301 -2.713  18.746   4.027
0.1301 -0.312  22.193   3.043
0.1301 -2.484  21.160   3.837
-0.0772 -9.298  21.846  12.564
-0.1309 -8.443  21.092  11.723
-0.1309 -8.873  22.139  13.875
-0.0537 -10.745  22.256  12.281
-0.1269 -7.267  20.611  12.223
-0.1269 -7.597  21.762  14.313
-0.1349 -6.816  20.992  13.478
0.1301 -8.747  20.742  10.737
0.1301 -9.589  22.642  14.592
0.0441 -11.069  23.132  12.787
0.0441 -10.858  22.411  11.171
0.0441 -11.446  21.426  12.459
0.1301 -6.643  19.912  11.635
0.1301 -7.176  22.012  15.251
0.1301 -5.830  20.611  13.732
-0.0772 7.863  11.387 -10.315
-0.1309 7.526  10.181  -9.759
-0.1309 7.778  11.562 -11.764
-0.0537 8.286  12.501  -9.361
-0.1269 7.358   9.050 -10.570
-0.1269 7.481  10.415 -12.555
-0.1349 7.308   9.154 -11.962
0.1301 7.656  10.140  -8.685
0.1301 7.957  12.529 -12.189
0.0441 9.341  12.449  -9.183
0.0441 7.994  13.463  -9.777
0.0441 7.717  12.538  -8.471
0.1301 7.239   8.054 -10.152
0.1301 7.475  10.616 -13.589
0.1301 7.066   8.329 -12.632
-0.0772 3.149  17.540  21.872
-0.1309 2.543  16.321  21.518
-0.1309 3.007  18.680  21.127
-0.0537 4.224  17.548  22.965
-0.1269 1.624  16.359  20.418
-0.1269 2.154  18.713  20.036
-0.1349 1.481  17.556  19.679
0.1301 2.882  15.380  21.894
0.1301 3.630  19.468  21.553
0.0441 4.023  16.789  23.728
0.0441 5.153  17.277  22.511
0.0441 4.386  18.500  23.549
0.1301 1.093  15.454  20.160
0.1301 1.996  19.590  19.428
0.1301 0.883  17.505  18.862
-0.0772 16.736  18.412  -5.239
-0.1309 16.571  17.222  -5.981
-0.1309 17.794  18.504  -4.332
-0.0537 15.814  19.555  -5.391
-0.1269 17.438  16.201  -5.823
-0.1269 18.566  17.347  -4.100
-0.1349 18.369  16.181  -4.852
0.1301 15.765  17.104  -6.786
0.1301 17.782  19.348  -3.694
0.0441 14.905  19.316  -5.860
0.0441 15.493  19.933  -4.425
0.0441 16.382  20.281  -5.962
0.1301 17.158  15.365  -6.423
0.1301 19.332  17.458  -3.304
0.1301 18.949  15.229  -4.653
-0.0772 -6.036  19.637 -21.894
-0.1309 -4.718  19.465 -21.431
-0.1309 -6.455  20.935 -21.951
-0.0537 -6.947  18.450 -22.107
-0.1269 -3.835  20.471 -21.147
-0.1269 -5.645  22.070 -21.618
-0.1349 -4.317  21.800 -21.319
0.1301 -4.371  18.420 -21.371
0.1301 -7.498  21.029 -22.114
0.0441 -7.487  18.532 -22.988
0.0441 -6.544  17.439 -22.076
0.0441 -7.765  18.502 -21.407
0.1301 -2.750  20.277 -20.939
0.1301 -6.105  23.065 -21.663
0.1301 -3.603  22.634 -21.234
-0.0772 7.963  14.771 -23.756
-0.1309 8.355  14.261 -22.508
-0.1309 6.665  15.283 -23.999
-0.0537 8.975  14.683 -24.866
-0.1269 7.456  14.234 -21.457
-0.1269 5.822  15.403 -22.881
-0.1349 6.211  14.882 -21.647
0.1301 9.314  13.808 -22.386
0.1301 6.298  15.514 -24.973
0.0441 8.717  13.863 -25.559
0.0441 9.100  15.589 -25.439
0.0441 9.955  14.426 -24.519
0.1301 7.652  13.716 -20.544
0.1301 4.827  15.830 -22.978
0.1301 5.429  14.959 -20.846
-0.0772 -20.433  -7.823  -0.701
-0.1309 -19.821  -6.623  -0.439
-0.1309 -21.873  -7.923  -0.774
-0.0537 -19.620  -8.977  -1.211
-0.1269 -20.646  -5.506  -0.140
-0.1269 -22.591  -6.770  -0.594
-0.1349 -22.038  -5.585  -0.216
0.1301 -18.743  -6.486  -0.412
0.1301 -22.403  -8.832  -0.913
0.0441 -18.658  -8.616  -1.642
0.0441 -19.424  -9.700  -0.368
0.0441 -20.064  -9.638  -1.995
0.1301 -20.262  -4.504  -0.043
0.1301 -23.682  -6.870  -0.877
0.1301 -22.633  -4.710  -0.225
-0.0772 -10.595 -21.153   2.165
-0.1309 -9.730 -21.708   1.206
-0.1309 -11.133 -19.875   1.932
-0.0537 -11.092 -21.974   3.309
-0.1269 -9.310 -20.902   0.074
-0.1269 -10.732 -19.168   0.822
-0.1349 -9.830 -19.616  -0.098
0.1301 -9.279 -22.690   1.247
0.1301 -11.770 -19.423   2.719
0.0441 -11.431 -21.349   4.160
0.0441 -11.867 -22.722   3.107
0.0441 -10.231 -22.498   3.816
0.1301 -8.540 -21.223  -0.648
0.1301 -11.120 -18.145   0.714
0.1301 -9.530 -18.906  -0.922
-0.0772 -24.420   3.687  -6.289
-0.1309 -23.599   4.585  -7.035
-0.1309 -24.112   2.299  -6.210
-0.0537 -25.704   4.333  -5.654
-0.1269 -22.478   4.036  -7.691
-0.1269 -22.928   1.799  -6.812
-0.1349 -22.160   2.669  -7.575
0.1301 -23.823   5.553  -7.169
0.1301 -24.732   1.783  -5.522
0.0441 -25.810   5.414  -5.928
0.0441 -26.515   3.815  -6.126
0.0441 -25.693   4.141  -4.553
0.1301 -21.965   4.675  -8.404
0.1301 -22.738   0.743  -6.710
0.1301 -21.317   2.193  -8.220
-0.0772 7.748  21.971   0.597
-0.1309 7.053  21.196  -0.318
-0.1309 9.104  22.247   0.436
-0.0537 7.064  22.710   1.716
-0.1269 7.708  20.707  -1.509
-0.1269 9.822  21.627  -0.618
-0.1349 9.105  20.848  -1.600
0.1301 5.992  21.193  -0.164
0.1301 9.576  22.965   1.060
0.0441 7.632  22.648   2.665
0.0441 7.086  23.762   1.343
0.0441 6.042  22.328   1.962
0.1301 7.005  20.307  -2.278
0.1301 10.851  21.720  -0.795
0.1301 9.656  20.461  -2.406
-0.0772 6.054  26.493 -11.746
-0.1309 5.852  25.053 -11.884
-0.1309 5.129  27.381 -12.249
-0.0537 7.263  27.057 -10.945
-0.1269 4.721  24.659 -12.595
-0.1269 4.092  26.965 -13.089
-0.1349 3.879  25.545 -13.275
0.1301 6.489  24.302 -11.452
0.1301 5.324  28.394 -12.110
0.0441 8.083  26.305 -10.739
0.0441 7.528  28.069 -11.292
0.0441 7.021  27.158  -9.926
0.1301 4.384  23.587 -12.693
0.1301 3.522  27.711 -13.686
0.1301 3.059  25.170 -13.896
-0.0772 -14.539  22.421  -3.259
-0.1309 -15.570  21.452  -3.180
-0.1309 -13.779  22.655  -4.373
-0.0537 -14.174  23.149  -2.007
-0.1269 -15.894  20.778  -4.373
-0.1269 -14.000  21.850  -5.485
-0.1349 -15.206  21.064  -5.564
0.1301 -16.185  21.415  -2.299
0.1301 -12.892  23.327  -4.395
0.0441 -13.936  24.155  -2.240
0.0441 -14.955  23.159  -1.232
0.0441 -13.291  22.703  -1.544
0.1301 -16.835  20.263  -4.366
0.1301 -13.473  22.097  -6.389
0.1301 -15.377  20.474  -6.475
-0.0772 8.697  15.740  -6.083
-0.1309 9.528  14.758  -6.636
-0.1309 7.687  15.339  -5.256
-0.0537 8.837  17.201  -6.544
-0.1269 9.323  13.389  -6.372
-0.1269 7.504  14.012  -4.940
-0.1349 8.324  12.978  -5.508
0.1301 10.408  15.047  -7.270
0.1301 7.027  16.075  -4.788
0.0441 8.237  17.410  -7.478
0.0441 8.402  17.813  -5.780
0.0441 9.944  17.438  -6.654
0.1301 10.016  12.626  -6.807
0.1301 6.679  13.811  -4.256
0.1301 8.118  11.920  -5.208
-0.0772 -19.976  15.284  -0.716
-0.1309 -18.832  14.606  -1.250
-0.1309 -19.830  16.357   0.215
-0.0537 -21.337  14.816  -1.112
-0.1269 -17.552  14.907  -0.763
-0.1269 -18.533  16.693   0.649
-0.1349 -17.416  15.959   0.196
0.1301 -18.954  13.833  -2.019
0.1301 -20.636  17.020   0.505
0.0441 -21.382  14.930  -2.233
0.0441 -21.626  13.754  -0.904
0.0441 -22.063  15.500  -0.614
0.1301 -16.709  14.371  -1.155
0.1301 -18.333  17.529   1.296
0.1301 -16.435  16.281   0.587
-0.0772 17.048   8.353 -12.135
-0.1309 18.143   7.767 -11.485
-0.1309 16.753   7.872 -13.449
-0.0537 16.141   9.357 -11.509
-0.1269 18.919   6.686 -12.049
-0.1269 17.598   6.943 -14.070
-0.1349 18.659   6.344 -13.379
0.1301 18.416   8.004 -10.427
0.1301 15.857   8.302 -13.929
0.0441 16.787   9.973 -10.800
0.0441 15.726  10.060 -12.205
0.0441 15.367   8.799 -11.015
0.1301 19.618   6.110 -11.466
0.1301 17.309   6.554 -15.052
0.1301 19.282   5.578 -13.911
-0.0772 26.954   3.483   5.302
-0.1309 25.832   3.873   4.642
-0.1309 28.023   4.426   5.249
-0.0537 26.935   2.287   6.219
-0.1269 25.763   4.958   3.731
-0.1269 28.019   5.455   4.276
-0.1349 26.925   5.652   3.451
0.1301 25.019   3.233   4.726
0.1301 28.932   4.237   5.691
0.0441 27.412   2.551   7.233
0.0441 26.034   1.831   6.331
0.0441 27.690   1.475   5.857
0.1301 24.850   5.060   3.162
0.1301 28.949   6.008   4.063
0.1301 26.943   6.326   2.561
-0.0772 -7.900  20.805 -15.308
-0.1309 -7.083  21.619 -14.529
-0.1309 -8.778  21.296 -16.324
-0.0537 -8.049  19.355 -14.958
-0.1269 -7.065  22.979 -14.875
-0.1269 -8.703  22.678 -16.600
-0.1349 -7.843  23.494 -15.907
0.1301 -6.329  21.266 -13.818
0.1301 -9.437  20.554 -16.815
0.0441 -7.244  18.644 -15.308
0.0441 -8.243  19.167 -13.894
0.0441 -8.932  18.978 -15.434
0.1301 -6.286  23.597 -14.499
0.1301 -9.373  23.135 -17.358
0.1301 -7.803  24.575 -16.069
-0.0772 2.800   1.094  -8.878
-0.1309 3.422  -0.149  -8.615
-0.1309 3.084   2.138  -8.007
-0.0537 1.855   1.344 -10.070
-0.1269 4.251  -0.355  -7.517
-0.1269 3.853   1.935  -6.851
-0.1349 4.485   0.689  -6.622
0.1301 3.248  -0.990  -9.342
0.1301 2.755   3.159  -8.244
0.0441 0.824   0.996  -9.830
0.0441 1.695   2.478 -10.277
0.0441 2.236   0.787 -10.947
0.1301 4.710  -1.306  -7.294
0.1301 4.027   2.814  -6.257
0.1301 5.304   0.623  -5.897
-0.0772 7.709   0.055  -4.115
-0.1309 8.310  -1.214  -4.049
-0.1309 6.808   0.415  -3.067
-0.0537 7.941   0.995  -5.219
-0.1269 8.116  -2.110  -3.009
-0.1269 6.671  -0.398  -1.923
-0.1349 7.344  -1.642  -1.905
0.1301 9.015  -1.439  -4.856
0.1301 6.304   1.286  -3.212
0.0441 7.538   0.667  -6.112
0.0441 7.516   2.022  -4.994
0.0441 8.974   1.339  -5.377
0.1301 8.544  -3.146  -3.076
0.1301 6.035  -0.107  -1.108
0.1301 7.161  -2.400  -1.189
-0.0772 23.787   9.912   7.505
-0.1309 24.581   8.783   7.465
-0.1309 23.079  10.327   6.381
-0.0537 23.541  10.634   8.839
-0.1269 24.771   8.085   6.268
-0.1269 23.217   9.607   5.135
-0.1349 24.047   8.487   5.166
0.1301 25.079   8.522   8.393
0.1301 22.339  11.114   6.472
0.0441 24.398  10.723   9.495
0.0441 23.180  11.648   8.550
0.0441 22.740  10.142   9.446
0.1301 25.399   7.198   6.139
0.1301 22.654   9.823   4.236
0.1301 24.116   7.849   4.280
-0.0772 7.181   4.057  -9.308
-0.1309 5.771   4.059  -9.335
-0.1309 7.913   4.619 -10.354
-0.0537 7.811   3.391  -8.094
-0.1269 5.170   4.707 -10.414
-0.1269 7.262   5.306 -11.370
-0.1349 5.829   5.372 -11.411
0.1301 5.159   3.728  -8.621
0.1301 9.028   4.590 -10.338
0.0441 7.112   2.946  -7.489
0.0441 8.550   2.596  -8.329
0.0441 8.395   4.047  -7.479
0.1301 4.053   4.813 -10.479
0.1301 7.857   5.676 -12.166
0.1301 5.361   5.769 -12.252
-0.0772 12.585  -9.928  -1.797
-0.1309 11.340 -10.311  -2.275
-0.1309 13.594 -10.818  -1.972
-0.0537 12.787  -8.484  -1.404
-0.1269 11.110 -11.575  -2.842
-0.1269 13.471 -12.048  -2.590
-0.1349 12.182 -12.476  -2.986
0.1301 10.572  -9.571  -2.222
0.1301 14.570 -10.441  -1.676
0.0441 13.830  -8.284  -1.362
0.0441 12.293  -7.858  -2.121
0.0441 12.395  -8.205  -0.450
0.1301 10.136 -11.779  -3.120
0.1301 14.297 -12.659  -2.658
0.1301 11.993 -13.384  -3.440
-0.0772 16.286  21.874 -12.689
-0.1309 17.563  21.873 -13.455
-0.1309 15.716  20.693 -12.476
-0.0537 15.673  23.085 -12.059
-0.1269 18.134  20.672 -13.943
-0.1269 16.243  19.479 -13.017
-0.1349 17.469  19.444 -13.736
0.1301 17.982  22.835 -13.401
0.1301 14.735  20.667 -12.070
0.0441 16.142  24.069 -12.242
0.0441 14.596  23.155 -12.331
0.0441 15.804  23.063 -10.939
0.1301 19.006  20.760 -14.562
0.1301 15.615  18.540 -12.872
0.1301 17.805  18.557 -14.278
-0.0772 -12.316  27.456  -2.365
-0.1309 -12.082  26.496  -3.330
-0.1309 -11.376  28.475  -2.108
-0.0537 -13.663  27.341  -1.593
-0.1269 -10.906  26.475  -4.047
-0.1269 -10.221  28.499  -2.881
-0.1349 -9.965  27.484  -3.825
0.1301 -12.854  25.740  -3.454
0.1301 -11.600  29.275  -1.392
0.0441 -13.652  27.752  -0.553
0.0441 -14.347  27.972  -2.131
0.0441 -14.082  26.327  -1.667
0.1301 -10.649  25.753  -4.844
0.1301 -9.426  29.286  -2.900
0.1301 -9.097  27.585  -4.483
-0.0772 -14.329  10.576  -1.853
-0.1309 -14.712  11.909  -1.665
-0.1309 -12.998  10.181  -1.506
-0.0537 -15.438   9.627  -2.205
-0.1269 -13.806  12.852  -1.153
-0.1269 -12.088  11.179  -1.097
-0.1349 -12.491  12.516  -0.917
0.1301 -15.752  12.249  -1.860
0.1301 -12.727   9.153  -1.532
0.0441 -15.326   8.746  -1.596
0.0441 -16.407  10.027  -1.964
0.0441 -15.366   9.316  -3.239
0.1301 -14.144  13.868  -1.002
0.1301 -11.032  10.844  -0.803
0.1301 -11.744  13.245  -0.554
-0.0772 21.373  -3.526  19.291
-0.1309 21.448  -2.129  19.535
-0.1309 22.308  -4.043  18.396
-0.0537 20.276  -4.322  19.944
-0.1269 22.487  -1.327  19.004
-0.1269 23.289  -3.213  17.806
-0.1349 23.420  -1.868  18.119
0.1301 20.768  -1.721  20.342
0.1301 22.227  -5.102  18.141
0.0441 19.299  -4.046  19.472
0.0441 20.381  -5.410  19.859
0.0441 20.187  -4.048  20.960
0.1301 22.682  -0.278  19.285
0.1301 23.995  -3.655  17.091
0.1301 24.236  -1.274  17.716
-0.0772 20.398  14.933   6.678
-0.1309 19.350  14.318   6.036
-0.1309 21.721  14.854   6.219
-0.0537 20.140  15.590   8.024
-0.1269 19.517  13.889   4.717
-0.1269 21.961  14.267   4.937
-0.1349 20.826  13.887   4.144
0.1301 18.392  14.274   6.604
0.1301 22.576  15.167   6.800
0.0441 19.127  16.027   8.041
0.0441 20.047  14.898   8.885
0.0441 20.744  16.470   8.331
0.1301 18.636  13.487   4.164
0.1301 22.977  14.149   4.643
0.1301 20.984  13.437   3.124
-0.0772 14.981  11.197 -15.706
-0.1309 15.775  12.119 -15.029
-0.1309 15.554   9.984 -16.270
-0.0537 13.532  11.577 -15.802
-0.1269 17.144  11.787 -14.820
-0.1269 16.908   9.724 -16.039
-0.1349 17.684  10.565 -15.238
0.1301 15.409  13.036 -14.694
0.1301 14.901   9.226 -16.778
0.0441 13.253  12.634 -15.668
0.0441 13.134  11.145 -16.760
0.0441 12.879  10.977 -15.115
0.1301 17.790  12.415 -14.310
0.1301 17.374   8.822 -16.439
0.1301 18.757  10.346 -15.024
-0.0772 -6.497  16.650 -17.696
-0.1309 -7.885  16.904 -17.541
-0.1309 -5.908  15.716 -16.854
-0.0537 -5.711  17.356 -18.828
-0.1269 -8.593  16.370 -16.466
-0.1269 -6.585  15.254 -15.693
-0.1349 -7.933  15.698 -15.434
0.1301 -8.302  17.688 -18.237
0.1301 -4.884  15.514 -16.965
0.0441 -4.655  17.496 -18.495
0.0441 -5.780  16.786 -19.774
0.0441 -6.168  18.333 -19.053
0.1301 -9.647  16.627 -16.264
0.1301 -6.090  14.682 -14.879
0.1301 -8.423  15.419 -14.490
-0.0772 13.340   0.274   0.939
-0.1309 13.870  -0.123  -0.313
-0.1309 13.463  -0.581   2.025
-0.0537 12.569   1.615   1.108
-0.1269 14.586  -1.334  -0.448
-0.1269 14.180  -1.767   1.880
-0.1349 14.658  -2.175   0.659
0.1301 13.684   0.491  -1.196
0.1301 12.998  -0.284   2.995
0.0441 13.343   2.332   1.048
0.0441 11.969   1.839   0.217
0.0441 11.995   1.641   2.037
0.1301 15.112  -1.598  -1.306
0.1301 14.226  -2.439   2.727
0.1301 15.242  -3.055   0.566
-0.0772 -1.807  24.934   5.657
-0.1309 -1.793  23.520   5.899
-0.1309 -2.945  25.638   6.162
-0.0537 -0.643  25.541   4.919
-0.1269 -2.840  22.778   6.577
-0.1269 -3.929  24.970   6.905
-0.1349 -3.924  23.558   7.051
0.1301 -0.889  22.940   5.583
0.1301 -2.896  26.737   6.110
0.0441 0.232  25.657   5.614
0.0441 -0.304  24.827   4.143
0.0441 -0.988  26.588   4.526
0.1301 -2.838  21.704   6.720
0.1301 -4.733  25.649   7.294
0.1301 -4.765  23.221   7.557
-0.0772 20.795  20.522  -9.895
-0.1309 20.854  19.732  -8.770
-0.1309 19.780  21.439  -9.986
-0.0537 21.775  20.418 -11.037
-0.1269 19.799  19.713  -7.804
-0.1269 18.852  21.588  -8.963
-0.1349 18.813  20.666  -7.917
0.1301 21.671  18.987  -8.761
0.1301 19.799  22.119 -10.788
0.0441 21.196  20.393 -11.987
0.0441 22.505  21.257 -10.969
0.0441 22.235  19.422 -11.098
0.1301 19.821  18.883  -7.031
0.1301 18.151  22.423  -9.031
0.1301 18.156  20.803  -7.107
-0.0772 11.200   2.874  -4.210
-0.1309 11.721   1.729  -4.808
-0.1309 10.408   2.892  -3.007
-0.0537 11.374   4.159  -4.993
-0.1269 11.465   0.501  -4.169
-0.1269 10.390   1.672  -2.311
-0.1349 10.882   0.498  -2.881
0.1301 12.238   1.713  -5.718
0.1301 9.954   3.681  -2.605
0.0441 11.955   4.892  -4.506
0.0441 11.856   4.008  -5.946
0.0441 10.367   4.622  -5.252
0.1301 11.837  -0.407  -4.639
0.1301 10.008   1.684  -1.321
0.1301 10.759  -0.438  -2.388
-0.0772 7.885  23.039  -7.599
-0.1309 8.128  23.401  -6.212
-0.1309 8.016  21.686  -8.021
-0.0537 7.666  24.215  -8.552
-0.1269 8.511  22.387  -5.330
-0.1269 8.370  20.738  -7.051
-0.1349 8.756  21.080  -5.781
0.1301 8.015  24.414  -5.894
0.1301 7.865  21.423  -9.069
0.0441 8.625  24.735  -8.701
0.0441 7.183  23.900  -9.507
0.0441 6.992  24.914  -8.129
0.1301 8.742  22.689  -4.323
0.1301 8.498  19.720  -7.257
0.1301 9.024  20.355  -5.053
-0.0772 6.951  -3.168   3.212
-0.1309 8.239  -2.862   3.674
-0.1309 6.382  -2.420   2.229
-0.0537 6.168  -4.171   3.902
-0.1269 8.966  -1.793   3.120
-0.1269 7.020  -1.241   1.767
-0.1349 8.304  -0.939   2.227
0.1301 8.645  -3.481   4.510
0.1301 5.326  -2.658   1.928
0.0441 5.504  -4.720   3.156
0.0441 6.869  -4.909   4.318
0.0441 5.546  -3.788   4.724
0.1301 9.966  -1.515   3.438
0.1301 6.545  -0.621   0.944
0.1301 8.826  -0.077   1.908
-0.0772 9.722  18.593   1.670
-0.1309 9.365  18.244   0.382
-0.1309 11.025  18.357   2.189
-0.0537 8.671  19.091   2.661
-0.1269 10.441  17.874  -0.502
-0.1269 12.066  18.047   1.331
-0.1349 11.746  17.759   0.026
0.1301 8.370  18.496  -0.021
0.1301 11.146  18.502   3.251
0.0441 8.483  18.450   3.550
0.0441 8.901  20.091   3.029
0.0441 7.759  19.281   2.124
0.1301 10.300  17.652  -1.600
0.1301 13.164  17.955   1.514
0.1301 12.628  17.405  -0.573
-0.0772 2.887 -14.118 -11.287
-0.1309 3.887 -13.227 -10.711
-0.1309 2.851 -14.407 -12.668
-0.0537 1.733 -14.660 -10.358
-0.1269 4.867 -12.716 -11.546
-0.1269 3.824 -13.789 -13.502
-0.1349 4.878 -13.029 -12.953
0.1301 3.769 -12.850  -9.662
0.1301 2.072 -15.026 -13.101
0.0441 0.800 -14.267 -10.690
0.0441 1.653 -15.791 -10.472
0.0441 1.831 -14.300  -9.283
0.1301 5.581 -11.982 -11.156
0.1301 3.788 -13.970 -14.565
0.1301 5.638 -12.674 -13.542
-0.0772 5.942  17.007 -14.028
-0.1309 7.311  17.248 -14.203
-0.1309 5.567  16.059 -13.067
-0.0537 4.934  17.656 -15.021
-0.1269 8.244  16.429 -13.568
-0.1269 6.534  15.346 -12.321
-0.1349 7.869  15.505 -12.596
0.1301 7.676  17.906 -14.959
0.1301 4.548  15.851 -12.900
0.0441 3.924  17.203 -14.988
0.0441 4.736  18.694 -14.713
0.0441 5.330  17.797 -16.035
0.1301 9.297  16.508 -13.797
0.1301 6.143  14.683 -11.542
0.1301 8.602  14.869 -12.135
-0.0772 4.435  22.068  -3.524
-0.1309 3.344  21.180  -3.604
-0.1309 4.584  22.952  -2.439
-0.0537 5.492  22.152  -4.662
-0.1269 2.435  21.093  -2.475
-0.1269 3.662  22.902  -1.396
-0.1349 2.567  22.032  -1.409
0.1301 3.172  20.527  -4.409
0.1301 5.467  23.570  -2.431
0.0441 6.112  23.054  -4.588
0.0441 6.080  21.245  -4.608
0.0441 5.135  22.148  -5.755
0.1301 1.620  20.422  -2.462
0.1301 3.779  23.615  -0.565
0.1301 1.897  21.862  -0.571
-0.0772 4.164  16.768  -7.743
-0.1309 4.012  15.617  -6.894
-0.1309 3.471  17.934  -7.510
-0.0537 5.234  16.739  -8.728
-0.1269 3.016  15.683  -5.934
-0.1269 2.475  17.973  -6.498
-0.1349 2.269  16.824  -5.668
0.1301 4.603  14.693  -7.000
0.1301 3.617  18.799  -8.170
0.0441 6.201  16.394  -8.240
0.0441 4.987  15.934  -9.435
0.0441 5.589  17.611  -9.199
0.1301 2.736  14.857  -5.263
0.1301 1.928  18.881  -6.284
0.1301 1.439  16.818  -4.978
-0.0772 6.365  -8.382  -4.476
-0.1309 6.304  -8.160  -5.880
-0.1309 7.643  -8.633  -3.951
-0.0537 5.085  -8.413  -3.553
-0.1269 7.485  -8.262  -6.631
-0.1269 8.785  -8.771  -4.713
-0.1349 8.752  -8.583  -6.072
0.1301 5.389  -7.855  -6.342
0.1301 7.790  -8.858  -2.873
0.0441 4.902  -9.407  -3.127
0.0441 5.298  -7.759  -2.747
0.0441 4.163  -7.942  -3.868
0.1301 7.473  -8.003  -7.701
0.1301 9.696  -9.134  -4.283
0.1301 9.649  -8.610  -6.625
-0.0772 24.885   3.009 -17.769
-0.1309 25.831   3.906 -17.112
-0.1309 24.649   1.753 -17.230
-0.0537 24.016   3.491 -18.892
-0.1269 26.552   3.359 -15.983
-0.1269 25.297   1.268 -16.044
-0.1349 26.241   2.116 -15.392
0.1301 26.048   4.945 -17.432
0.1301 23.819   1.162 -17.682
0.0441 24.590   4.238 -19.555
0.0441 23.653   2.682 -19.607
0.0441 23.077   3.979 -18.513
0.1301 27.264   3.996 -15.463
0.1301 24.967   0.275 -15.603
0.1301 26.864   1.672 -14.561
-0.0772 -3.454   5.093  -9.416
-0.1309 -3.256   4.831  -8.025
-0.1309 -2.473   4.623 -10.355
-0.0537 -4.625   5.981  -9.849
-0.1269 -2.189   4.010  -7.556
-0.1269 -1.436   3.769  -9.855
-0.1349 -1.326   3.423  -8.494
0.1301 -4.027   5.212  -7.248
0.1301 -2.548   4.917 -11.457
0.0441 -4.331   6.927 -10.327
0.0441 -5.128   5.446 -10.611
0.0441 -5.364   6.261  -9.044
0.1301 -2.060   3.879  -6.498
0.1301 -0.713   3.361 -10.533
0.1301 -0.478   2.834  -8.134
-0.0772 6.499  -6.226  18.536
-0.1309 7.235  -5.192  19.172
-0.1309 6.301  -5.981  17.120
-0.0537 5.729  -7.258  19.289
-0.1269 7.630  -3.980  18.558
-0.1269 6.788  -4.785  16.433
-0.1349 7.368  -3.785  17.222
0.1301 7.285  -5.258  20.271
0.1301 5.629  -6.707  16.662
0.0441 6.005  -7.284  20.346
0.0441 4.689  -6.974  19.216
0.0441 5.845  -8.234  18.836
0.1301 8.172  -3.281  19.218
0.1301 6.649  -4.553  15.405
0.1301 7.689  -2.867  16.756
-0.0772 11.942   1.823   6.593
-0.1309 10.847   2.500   5.989
-0.1309 12.860   2.636   7.235
-0.0537 12.149   0.336   6.466
-0.1269 10.592   3.861   6.328
-0.1269 12.707   3.988   7.413
-0.1349 11.554   4.604   6.985
0.1301 10.055   1.950   5.510
0.1301 13.769   2.186   7.657
0.0441 12.512   0.206   5.436
0.0441 12.846  -0.016   7.245
0.0441 11.180  -0.181   6.578
0.1301 9.713   4.365   5.878
0.1301 13.519   4.568   7.935
0.1301 11.468   5.695   7.148
-0.0772 13.585  -6.575 -23.642
-0.1309 14.848  -6.945 -23.009
-0.1309 13.390  -6.950 -24.991
-0.0537 12.470  -5.949 -22.862
-0.1269 15.829  -7.628 -23.685
-0.1269 14.451  -7.665 -25.642
-0.1349 15.671  -8.000 -25.013
0.1301 15.014  -6.625 -22.027
0.1301 12.420  -6.718 -25.521
0.0441 11.665  -6.659 -22.763
0.0441 12.738  -5.806 -21.788
0.0441 12.182  -4.973 -23.231
0.1301 16.759  -7.851 -23.178
0.1301 14.291  -8.051 -26.703
0.1301 16.330  -8.616 -25.579
-0.0772 2.904  21.317   5.715
-0.1309 2.781  20.077   5.015
-0.1309 4.082  22.030   5.529
-0.0537 1.750  21.832   6.437
-0.1269 3.766  19.599   4.196
-0.1269 5.111  21.569   4.683
-0.1349 4.932  20.351   4.019
0.1301 1.890  19.454   5.154
0.1301 4.118  23.059   5.831
0.0441 0.852  21.399   6.035
0.0441 1.744  21.662   7.521
0.0441 1.751  22.938   6.300
0.1301 3.606  18.651   3.735
0.1301 6.019  22.133   4.475
0.1301 5.677  19.949   3.329
-0.0772 13.167   8.826 -19.473
-0.1309 13.377   7.620 -18.762
-0.1309 11.845   9.007 -19.938
-0.0537 14.252   9.840 -19.667
-0.1269 12.364   6.649 -18.483
-0.1269 10.866   8.058 -19.709
-0.1349 11.059   6.892 -18.933
0.1301 14.358   7.510 -18.304
0.1301 11.711   9.958 -20.540
0.0441 15.030   9.613 -18.923
0.0441 14.642   9.606 -20.605
0.0441 13.859  10.893 -19.557
0.1301 12.584   5.672 -18.000
0.1301 9.794   8.269 -20.073
0.1301 10.252   6.209 -18.735
-0.0772 8.745  12.027 -16.929
-0.1309 9.581  12.589 -17.955
-0.1309 7.866  10.990 -17.237
-0.0537 9.065  12.511 -15.542
-0.1269 9.444  12.076 -19.314
-0.1269 7.784  10.441 -18.519
-0.1349 8.550  11.022 -19.526
0.1301 10.404  13.278 -17.712
0.1301 7.307  10.545 -16.448
0.0441 8.542  13.483 -15.262
0.0441 8.708  11.742 -14.903
0.0441 10.159  12.667 -15.405
0.1301 10.184  12.421 -20.015
0.1301 7.235   9.591 -18.790
0.1301 8.597  10.668 -20.548
-0.0772 -3.851  21.510 -16.720
-0.1309 -3.003  21.058 -15.704
-0.1309 -4.102  22.854 -17.016
-0.0537 -4.439  20.323 -17.578
-0.1269 -2.311  22.046 -15.022
-0.1269 -3.536  23.797 -16.174
-0.1349 -2.563  23.411 -15.195
0.1301 -2.704  20.012 -15.566
0.1301 -4.901  23.045 -17.754
0.0441 -4.819  19.616 -16.875
0.0441 -5.345  20.630 -18.111
0.0441 -3.710  19.801 -18.209
0.1301 -1.526  21.792 -14.324
0.1301 -3.738  24.847 -16.293
0.1301 -2.095  24.138 -14.489
-0.0772 12.828   0.484  -8.984
-0.1309 12.202   1.355  -9.924
-0.1309 13.695   1.088  -8.019
-0.0537 12.436  -0.982  -9.003
-0.1269 12.339   2.762  -9.831
-0.1269 13.895   2.460  -7.957
-0.1349 13.195   3.303  -8.824
0.1301 11.494   0.865 -10.617
0.1301 14.298   0.463  -7.282
0.0441 12.675  -1.427  -8.027
0.0441 11.360  -1.034  -9.149
0.0441 13.063  -1.559  -9.733
0.1301 11.862   3.486 -10.489
0.1301 14.588   2.862  -7.167
0.1301 13.343   4.366  -8.759
-0.0772 -2.090  -4.174  23.801
-0.1309 -1.115  -3.229  24.256
-0.1309 -3.286  -4.233  24.505
-0.0537 -1.752  -5.111  22.631
-0.1269 -1.349  -2.336  25.316
-0.1269 -3.501  -3.381  25.612
-0.1349 -2.594  -2.367  25.978
0.1301 -0.214  -3.103  23.573
0.1301 -3.973  -5.056  24.406
0.0441 -2.016  -4.587  21.648
0.0441 -0.730  -5.447  22.597
0.0441 -2.400  -5.996  22.561
0.1301 -0.589  -1.582  25.487
0.1301 -4.427  -3.371  26.215
0.1301 -2.813  -1.787  26.836
-0.0772 6.803   5.042   8.968
-0.1309 6.262   6.182   9.570
-0.1309 8.206   4.937   8.741
-0.0537 5.809   4.067   8.381
-0.1269 7.082   7.120  10.157
-0.1269 9.062   5.936   9.237
-0.1349 8.467   7.016  10.032
0.1301 5.201   6.249   9.727
0.1301 8.498   4.005   8.166
0.0441 5.918   4.145   7.218
0.0441 6.095   3.030   8.668
0.0441 4.775   4.131   8.798
0.1301 6.634   7.837  10.840
0.1301 10.147   5.943   9.165
0.1301 9.036   7.769  10.393
-0.0772 11.331  27.251  -2.284
-0.1309 11.647  25.924  -2.066
-0.1309 10.009  27.588  -2.514
-0.0537 12.421  28.298  -2.607
-0.1269 10.611  24.923  -2.052
-0.1269 9.014  26.639  -2.446
-0.1349 9.291  25.296  -2.203
0.1301 12.685  25.639  -1.993
0.1301 9.723  28.638  -2.723
0.0441 12.928  27.981  -3.479
0.0441 11.952  29.292  -2.680
0.0441 13.154  28.447  -1.798
0.1301 10.872  23.906  -1.955
0.1301 8.006  26.908  -2.658
0.1301 8.558  24.463  -2.180
-0.0772 4.131 -12.944   9.550
-0.1309 4.465 -13.949   8.612
-0.1309 4.205 -13.272  10.908
-0.0537 3.832 -11.501   9.120
-0.1269 4.777 -15.261   8.963
-0.1269 4.669 -14.562  11.275
-0.1349 4.929 -15.573  10.263
0.1301 4.513 -13.741   7.525
0.1301 4.191 -12.565  11.794
0.0441 3.591 -10.880   9.993
0.0441 4.752 -11.079   8.754
0.0441 3.066 -11.441   8.338
0.1301 4.992 -15.919   8.163
0.1301 4.837 -14.790  12.274
0.1301 5.111 -16.596  10.494
-0.0772 -10.988 -11.196   1.131
-0.1309 -12.122 -10.434   1.527
-0.1309 -10.166 -11.888   2.051
-0.0537 -10.535 -11.126  -0.337
-0.1269 -12.448 -10.431   2.898
-0.1269 -10.646 -11.992   3.340
-0.1349 -11.699 -11.219   3.779
0.1301 -12.623  -9.854   0.786
0.1301 -9.280 -12.462   1.772
0.0441 -11.446 -11.331  -1.000
0.0441 -10.329 -10.080  -0.472
0.0441 -9.745 -11.775  -0.639
0.1301 -13.232  -9.787   3.304
0.1301 -10.063 -12.548   4.087
0.1301 -11.988 -11.261   4.803
-0.0772 13.693 -17.260  12.015
-0.1309 12.960 -17.302  10.806
-0.1309 13.268 -16.398  13.027
-0.0537 15.078 -17.950  12.243
-0.1269 11.773 -16.649  10.707
-0.1269 11.992 -15.841  12.956
-0.1349 11.196 -16.007  11.797
0.1301 13.367 -17.911   9.974
0.1301 13.870 -16.419  13.864
0.0441 14.945 -18.979  12.579
0.0441 15.588 -17.910  11.286
0.0441 15.728 -17.370  12.945
0.1301 11.274 -16.684   9.822
0.1301 11.628 -15.276  13.841
0.1301 10.157 -15.619  11.867
-0.0772 6.760   7.609  19.078
-0.1309 7.808   8.201  18.317
-0.1309 7.134   7.107  20.354
-0.0537 5.369   7.558  18.534
-0.1269 9.133   8.320  18.830
-0.1269 8.421   7.260  20.867
-0.1349 9.458   7.843  20.112
0.1301 7.585   8.629  17.355
0.1301 6.347   6.748  20.986
0.0441 4.494   7.520  19.227
0.0441 5.236   8.153  17.672
0.0441 5.269   6.593  18.107
0.1301 9.918   8.738  18.257
0.1301 8.783   6.924  21.825
0.1301 10.413   7.823  20.555
-0.0772 13.081  -7.136   8.287
-0.1309 14.082  -6.825   9.190
-0.1309 11.759  -7.234   8.795
-0.0537 13.286  -6.980   6.814
-0.1269 13.845  -6.927  10.590
-0.1269 11.480  -7.298  10.146
-0.1349 12.559  -7.174  11.084
0.1301 15.072  -6.616   8.870
0.1301 10.954  -7.386   8.094
0.0441 12.851  -7.921   6.382
0.0441 12.685  -6.186   6.363
0.0441 14.365  -7.036   6.563
0.1301 14.652  -6.778  11.304
0.1301 10.524  -7.593  10.523
0.1301 12.278  -7.181  12.137
-0.0772 -6.679   7.772  20.006
-0.1309 -6.161   6.713  20.832
-0.1309 -7.751   8.506  20.524
-0.0537 -6.434   7.801  18.529
-0.1269 -6.735   6.439  22.088
-0.1269 -8.248   8.253  21.846
-0.1349 -7.742   7.189  22.627
0.1301 -5.542   5.957  20.347
0.1301 -8.221   9.295  19.938
0.0441 -5.540   8.388  18.301
0.0441 -6.203   6.750  18.300
0.0441 -7.304   8.096  17.968
0.1301 -6.308   5.684  22.661
0.1301 -9.079   8.833  22.133
0.1301 -8.034   7.052  23.614
-0.0772 19.773   6.650  21.457
-0.1309 20.903   7.004  20.698
-0.1309 19.027   7.615  22.064
-0.0537 19.394   5.193  21.614
-0.1269 21.333   8.324  20.599
-0.1269 19.510   8.932  22.100
-0.1349 20.649   9.275  21.360
0.1301 21.440   6.215  20.227
0.1301 18.113   7.364  22.614
0.0441 18.729   4.821  20.876
0.0441 20.291   4.514  21.656
0.0441 18.868   5.039  22.582
0.1301 22.193   8.666  19.984
0.1301 18.899   9.704  22.537
0.1301 21.075  10.275  21.404
-0.0772 16.717  -3.387  15.546
-0.1309 15.415  -2.924  15.893
-0.1309 16.915  -4.502  14.665
-0.0537 17.904  -2.670  15.997
-0.1269 14.315  -3.681  15.463
-0.1269 15.786  -5.251  14.329
-0.1349 14.511  -4.866  14.815
0.1301 15.210  -1.982  16.471
0.1301 17.910  -4.724  14.264
0.0441 18.009  -1.765  15.367
0.0441 17.854  -2.489  17.025
0.0441 18.863  -3.176  15.807
0.1301 13.289  -3.371  15.709
0.1301 15.973  -6.119  13.809
0.1301 13.679  -5.602  14.614
-0.0772 6.270  -1.943   9.933
-0.1309 6.172  -1.325  11.166
