1585

0.0441 -7.924  12.222   1.237
0.1301 -6.480  12.528   5.824
0.1301 -3.793   9.723   4.074
0.1301 -4.640  10.884   6.010
-0.0772 13.737  23.237 -11.270
-0.1309 14.008  23.344  -9.873
-0.1309 14.795  23.433 -12.148
-0.0537 12.369  23.134 -11.874
-0.1269 15.373  23.620  -9.511
-0.1269 16.072  23.655 -11.804
-0.1349 16.390  23.777 -10.447
0.1301 13.282  23.166  -9.098
0.1301 14.610  23.419 -13.210
0.0441 12.340  23.498 -12.923
0.0441 11.963  22.155 -11.788
0.0441 11.746  23.894 -11.439
0.1301 15.631  23.588  -8.458
0.1301 16.811  23.818 -12.559
0.1301 17.461  23.889 -10.177
-0.0772 22.995  16.063 -13.402
-0.1309 24.232  15.806 -12.805
-0.1309 21.872  15.822 -12.695
-0.0537 22.815  16.340 -14.955
-0.1269 24.379  15.476 -11.453
-0.1269 21.888  15.429 -11.367
-0.1349 23.139  15.464 -10.683
0.1301 25.160  15.864 -13.358
0.1301 20.929  15.847 -13.296
0.0441 22.199  17.219 -14.919
0.0441 23.764  16.427 -15.464
0.0441 22.170  15.629 -15.409
0.1301 25.329  15.255 -11.006
0.1301 20.936  15.296 -10.801
0.1301 23.130  15.406  -9.547
-0.0772 -3.787  -0.968 -29.015
-0.1309 -2.468  -1.136 -29.336
-0.1309 -4.335  -1.613 -27.899
-0.0537 -4.584   0.016 -29.846
-0.1269 -1.661  -2.032 -28.651
-0.1269 -3.507  -2.483 -27.114
-0.1349 -2.210  -2.702 -27.531
0.1301 -2.029  -0.603 -30.258
0.1301 -5.382  -1.384 -27.684
0.0441 -4.795   0.958 -29.244
0.0441 -3.894   0.254 -30.639
0.0441 -5.515  -0.357 -30.183
0.1301 -0.616  -2.228 -28.957
0.1301 -3.976  -3.084 -26.313
0.1301 -1.648  -3.444 -26.983
-0.0772 2.380  21.791  -2.230
-0.1309 1.577  21.903  -3.385
-0.1309 3.274  22.874  -1.904
-0.0537 2.292  20.625  -1.223
-0.1269 1.591  23.079  -4.145
-0.1269 3.384  23.993  -2.751
-0.1349 2.575  24.078  -3.903
0.1301 0.874  21.101  -3.523
0.1301 4.107  22.689  -1.177
0.0441 3.341  20.249  -1.045
0.0441 1.886  20.973  -0.267
0.0441 1.693  19.823  -1.569
0.1301 0.861  23.153  -4.913
0.1301 4.234  24.654  -2.542
0.1301 2.714  24.993  -4.549
-0.0772 22.749  11.368 -15.090
-0.1309 23.739  12.264 -15.506
-0.1309 22.800  10.863 -13.727
-0.0537 21.788  10.708 -16.110
-0.1269 24.641  12.797 -14.567
-0.1269 23.653  11.418 -12.804
-0.1349 24.582  12.398 -13.199
0.1301 23.709  12.561 -16.520
0.1301 22.109  10.079 -13.483
0.0441 22.338  10.214 -16.881
0.0441 21.097   9.919 -15.739
0.0441 21.183  11.494 -16.659
0.1301 25.382  13.639 -14.814
0.1301 23.633  11.038 -11.778
0.1301 25.142  12.724 -12.374
-0.0772 -10.950  16.007 -20.865
-0.1309 -10.298  16.477 -19.678
-0.1309 -10.748  14.707 -21.339
-0.0537 -11.948  16.933 -21.595
-0.1269 -9.544  15.588 -18.894
-0.1269 -9.794  13.939 -20.716
-0.1349 -9.241  14.349 -19.468
0.1301 -10.475  17.502 -19.292
0.1301 -11.314  14.292 -22.157
0.0441 -11.477  17.627 -22.225
0.0441 -12.632  16.398 -22.195
0.0441 -12.390  17.528 -20.806
0.1301 -9.229  15.956 -17.906
0.1301 -9.578  12.967 -21.076
0.1301 -8.569  13.724 -18.971
-0.0772 14.157   5.361 -26.067
-0.1309 14.078   6.350 -25.078
-0.1309 15.227   4.419 -25.997
-0.0537 13.125   5.273 -27.124
-0.1269 14.964   6.377 -24.042
-0.1269 16.153   4.408 -24.891
-0.1349 15.964   5.428 -23.918
0.1301 13.223   7.055 -25.039
0.1301 15.313   3.644 -26.755
0.0441 12.556   6.182 -27.043
0.0441 13.690   5.285 -28.117
0.0441 12.469   4.457 -26.987
0.1301 14.917   7.190 -23.332
0.1301 16.959   3.702 -24.850
0.1301 16.666   5.477 -23.086
-0.0772 -17.673  21.399   4.891
-0.1309 -18.687  21.517   5.831
-0.1309 -16.373  21.251   5.326
-0.0537 -17.995  21.198   3.423
-0.1269 -18.348  21.560   7.177
-0.1269 -16.018  21.313   6.676
-0.1349 -17.015  21.554   7.589
0.1301 -19.725  21.566   5.472
0.1301 -15.639  21.042   4.557
0.0441 -19.054  21.463   3.254
0.0441 -17.293  21.738   2.647
0.0441 -17.760  20.117   3.314
0.1301 -19.147  21.648   7.841
0.1301 -14.996  21.312   7.035
0.1301 -16.765  21.698   8.644
-0.0772 -1.631  25.338  -2.070
-0.1309 -1.805  24.537  -3.192
-0.1309 -2.210  26.613  -2.102
-0.0537 -0.651  24.941  -0.937
-0.1269 -2.755  24.898  -4.149
-0.1269 -3.070  27.043  -3.068
-0.1349 -3.401  26.146  -4.094
0.1301 -1.322  23.527  -3.226
0.1301 -2.096  27.278  -1.264
0.0441 -0.045  25.713  -0.452
0.0441 -1.264  24.595  -0.103
0.0441 0.101  24.178  -1.169
0.1301 -2.870  24.249  -5.012
0.1301 -3.692  27.970  -2.981
0.1301 -4.086  26.322  -4.921
-0.0772 5.612  15.850  -1.081
-0.1309 4.528  15.145  -1.653
-0.1309 5.389  17.101  -0.450
-0.0537 7.035  15.533  -1.503
-0.1269 3.224  15.589  -1.496
-0.1269 4.085  17.501  -0.281
-0.1349 2.936  16.720  -0.705
0.1301 4.609  14.230  -2.313
0.1301 6.191  17.754  -0.110
0.0441 7.404  14.570  -1.029
0.0441 7.257  15.295  -2.596
0.0441 7.651  16.394  -1.286
0.1301 2.383  15.041  -1.944
0.1301 3.914  18.404   0.273
0.1301 1.904  17.022  -0.373
-0.0772 -6.779  27.238   9.478
-0.1309 -5.948  28.298   9.587
-0.1309 -6.297  25.940   9.647
-0.0537 -8.282  27.471   9.165
-0.1269 -4.570  28.089   9.826
-0.1269 -4.889  25.690   9.756
-0.1349 -4.011  26.814   9.915
0.1301 -6.260  29.314   9.463
0.1301 -7.105  25.124   9.664
0.0441 -8.610  27.488   8.094
0.0441 -8.930  26.741   9.619
0.0441 -8.569  28.447   9.616
0.1301 -3.939  28.925   9.803
0.1301 -4.510  24.677   9.821
0.1301 -2.968  26.739  10.249
-0.0772 10.462  11.005 -12.089
-0.1309 9.703  11.750 -13.018
-0.1309 9.867   9.942 -11.431
-0.0537 12.004  11.188 -11.792
-0.1269 8.306  11.596 -13.190
-0.1269 8.477   9.692 -11.604
-0.1349 7.731  10.519 -12.418
0.1301 10.206  12.545 -13.525
0.1301 10.485   9.261 -10.834
0.0441 12.483  10.146 -11.566
0.0441 12.533  11.501 -12.713
0.0441 12.094  11.927 -10.961
0.1301 7.680  12.347 -13.762
0.1301 8.053   8.861 -11.148
0.1301 6.659  10.415 -12.418
-0.0772 4.464  18.947  20.707
-0.1309 5.536  19.076  21.579
-0.1309 3.377  18.069  21.107
-0.0537 4.400  19.627  19.350
-0.1269 5.524  18.582  22.900
-0.1269 3.372  17.590  22.425
-0.1349 4.343  17.939  23.372
0.1301 6.314  19.737  21.254
0.1301 2.485  17.879  20.441
0.0441 5.220  19.268  18.742
0.0441 3.526  19.375  18.700
0.0441 4.493  20.722  19.485
0.1301 6.309  18.786  23.621
0.1301 2.505  16.971  22.788
0.1301 4.214  17.588  24.391
-0.0772 17.944  14.183  -4.289
-0.1309 17.586  15.546  -4.319
-0.1309 17.992  13.449  -5.509
-0.0537 18.351  13.606  -2.992
-0.1269 17.165  16.156  -5.430
-0.1269 17.458  14.019  -6.676
-0.1349 17.089  15.385  -6.636
0.1301 17.583  16.222  -3.397
0.1301 18.391  12.408  -5.547
0.0441 18.827  14.371  -2.340
0.0441 17.403  13.223  -2.451
0.0441 19.031  12.764  -3.146
0.1301 16.950  17.170  -5.289
0.1301 17.530  13.489  -7.546
0.1301 16.712  15.818  -7.502
-0.0772 -3.967  18.140 -19.077
-0.1309 -3.354  18.915 -20.102
-0.1309 -5.334  17.745 -19.189
-0.0537 -3.285  17.832 -17.796
-0.1269 -4.042  19.207 -21.311
-0.1269 -6.048  18.134 -20.335
-0.1349 -5.415  18.859 -21.420
0.1301 -2.357  19.358 -20.006
0.1301 -5.853  17.269 -18.303
0.0441 -2.841  16.837 -17.901
0.0441 -2.520  18.560 -17.637
0.0441 -3.957  17.908 -16.960
0.1301 -3.479  19.631 -22.181
0.1301 -7.116  17.920 -20.465
0.1301 -5.971  19.190 -22.277
-0.0772 2.843  13.756 -26.646
-0.1309 3.391  14.749 -25.834
-0.1309 3.646  12.792 -27.136
-0.0537 1.351  13.724 -26.899
-0.1269 4.752  14.831 -25.517
-0.1269 5.035  12.845 -26.924
-0.1349 5.546  13.854 -26.091
0.1301 2.700  15.456 -25.354
0.1301 3.290  12.082 -27.847
0.0441 0.672  14.385 -26.209
0.0441 1.084  13.972 -27.922
0.0441 1.109  12.708 -26.709
0.1301 5.224  15.684 -24.976
0.1301 5.723  12.184 -27.533
0.1301 6.660  14.066 -25.998
-0.0772 -16.289  -4.645  -2.362
-0.1309 -15.423  -3.700  -1.774
-0.1309 -15.822  -5.284  -3.534
-0.0537 -17.640  -4.935  -1.766
-0.1269 -14.195  -3.339  -2.344
-0.1269 -14.522  -5.028  -4.058
-0.1349 -13.746  -4.002  -3.484
0.1301 -15.700  -3.247  -0.876
0.1301 -16.546  -5.823  -4.055
0.0441 -18.076  -3.991  -1.483
0.0441 -18.344  -5.508  -2.472
0.0441 -17.597  -5.601  -0.925
0.1301 -13.545  -2.683  -1.847
0.1301 -14.186  -5.524  -4.963
0.1301 -12.834  -3.709  -3.943
-0.0772 -13.203 -17.602  -1.054
-0.1309 -12.791 -18.908  -1.047
-0.1309 -12.942 -16.864   0.087
-0.0537 -14.008 -16.959  -2.249
-0.1269 -12.074 -19.491   0.014
-0.1269 -12.346 -17.483   1.265
-0.1349 -11.856 -18.805   1.174
0.1301 -13.002 -19.616  -1.831
0.1301 -13.350 -15.758   0.111
0.0441 -14.884 -17.581  -2.389
0.0441 -14.313 -15.879  -2.131
0.0441 -13.413 -17.028  -3.237
0.1301 -11.699 -20.513   0.092
0.1301 -12.229 -16.876   2.201
0.1301 -11.257 -19.152   2.025
-0.0772 -17.334   5.905 -11.534
-0.1309 -17.338   6.155 -10.177
-0.1309 -16.156   5.561 -12.263
-0.0537 -18.725   5.740 -12.176
-0.1269 -16.162   5.929  -9.448
-0.1269 -14.923   5.519 -11.483
-0.1349 -14.995   5.618 -10.116
0.1301 -18.299   6.296  -9.605
0.1301 -16.253   5.434 -13.366
0.0441 -18.922   4.642 -12.412
0.0441 -19.520   6.111 -11.481
0.0441 -18.796   6.415 -13.094
0.1301 -16.140   5.789  -8.403
0.1301 -13.963   5.313 -11.944
0.1301 -14.143   5.500  -9.512
-0.0772 9.304  20.625  -2.544
-0.1309 8.801  21.834  -2.004
-0.1309 8.406  19.507  -2.788
-0.0537 10.813  20.506  -2.709
-0.1269 7.432  21.922  -1.842
-0.1269 7.016  19.659  -2.617
-0.1349 6.542  20.929  -2.151
0.1301 9.497  22.576  -1.668
0.1301 8.886  18.569  -3.105
0.0441 11.315  20.514  -1.753
0.0441 11.153  19.623  -3.287
0.0441 11.167  21.291  -3.367
0.1301 7.084  22.887  -1.373
0.1301 6.368  18.806  -2.739
0.1301 5.543  21.089  -2.025
-0.0772 10.839  27.864  -9.717
-0.1309 10.798  28.695  -8.538
-0.1309 11.849  26.948  -9.906
-0.0537 9.853  28.023 -10.776
-0.1269 11.767  28.524  -7.524
-0.1269 12.797  26.713  -8.867
-0.1349 12.808  27.543  -7.663
0.1301 10.007  29.543  -8.509
0.1301 11.934  26.376 -10.854
0.0441 8.875  28.446 -10.503
0.0441 10.278  28.625 -11.585
0.0441 9.688  27.110 -11.338
0.1301 11.735  29.037  -6.589
0.1301 13.512  25.892  -9.001
0.1301 13.414  27.168  -6.830
-0.0772 -13.533  20.861  -6.325
-0.1309 -13.982  19.750  -7.046
-0.1309 -13.982  22.167  -6.487
-0.0537 -12.603  20.516  -5.192
-0.1269 -14.888  19.901  -8.080
-0.1269 -14.964  22.314  -7.515
-0.1349 -15.369  21.197  -8.302
0.1301 -13.657  18.720  -6.813
0.1301 -13.724  23.095  -5.936
0.0441 -12.557  21.262  -4.392
0.0441 -12.795  19.563  -4.755
0.0441 -11.535  20.458  -5.613
0.1301 -15.142  19.013  -8.671
0.1301 -15.238  23.275  -7.832
0.1301 -16.134  21.320  -9.094
-0.0772 9.970   8.945  -6.769
-0.1309 10.185   9.053  -5.367
-0.1309 9.287   7.787  -7.228
-0.0537 10.292  10.001  -7.782
-0.1269 9.691   8.003  -4.563
-0.1269 8.784   6.829  -6.374
-0.1349 8.991   6.917  -5.014
0.1301 10.677   9.987  -5.016
0.1301 9.106   7.643  -8.275
0.0441 9.381  10.169  -8.340
0.0441 10.620  10.900  -7.261
0.0441 11.164   9.749  -8.479
0.1301 9.625   8.202  -3.458
0.1301 8.208   5.962  -6.833
0.1301 8.495   6.175  -4.317
-0.0772 -14.794  17.320  -0.633
-0.1309 -16.133  17.605  -0.300
-0.1309 -13.820  17.469   0.367
-0.0537 -14.419  16.711  -1.971
-0.1269 -16.438  18.211   0.950
-0.1269 -14.138  18.068   1.619
-0.1349 -15.470  18.332   1.915
0.1301 -17.020  17.406  -0.981
0.1301 -12.809  17.252   0.105
0.0441 -13.940  17.583  -2.486
0.0441 -13.664  15.895  -1.832
0.0441 -15.304  16.378  -2.510
0.1301 -17.449  18.460   1.197
0.1301 -13.366  18.206   2.364
0.1301 -15.758  18.870   2.812
-0.0772 17.730   8.928 -14.463
-0.1309 17.852   8.890 -13.117
-0.1309 17.048   7.932 -15.157
-0.0537 18.251  10.155 -15.166
-0.1269 17.284   7.840 -12.378
-0.1269 16.507   6.808 -14.542
-0.1349 16.564   6.807 -13.135
0.1301 18.436   9.600 -12.516
0.1301 16.946   8.087 -16.230
0.0441 18.577   9.950 -16.207
0.0441 17.417  10.867 -15.121
0.0441 19.137  10.585 -14.611
0.1301 17.287   7.841 -11.268
0.1301 15.995   5.989 -15.044
0.1301 16.226   5.963 -12.647
-0.0772 24.345   2.483   7.590
-0.1309 23.075   3.129   7.505
-0.1309 25.325   2.546   6.549
-0.0537 24.626   1.554   8.795
-0.1269 22.779   3.883   6.374
-0.1269 24.973   3.243   5.392
-0.1349 23.726   3.979   5.323
0.1301 22.339   2.990   8.215
0.1301 26.244   1.995   6.550
0.0441 24.813   0.499   8.558
0.0441 25.464   1.730   9.368
0.0441 23.848   1.517   9.497
0.1301 21.785   4.370   6.308
0.1301 25.523   3.246   4.353
0.1301 23.598   4.532   4.427
-0.0772 -7.368  21.452 -16.556
-0.1309 -8.637  22.043 -16.426
-0.1309 -6.861  21.179 -17.886
-0.0537 -6.517  21.315 -15.310
-0.1269 -9.499  22.075 -17.536
-0.1269 -7.600  21.568 -18.977
-0.1349 -8.939  21.945 -18.829
0.1301 -8.989  22.377 -15.445
0.1301 -5.860  20.766 -18.097
0.0441 -7.069  21.297 -14.321
0.0441 -5.939  20.416 -15.271
0.0441 -5.789  22.184 -15.259
0.1301 -10.509  22.568 -17.433
0.1301 -7.217  21.470 -20.005
0.1301 -9.426  22.232 -19.739
-0.0772 3.316  -0.239 -11.429
-0.1309 4.737  -0.451 -11.303
-0.1309 2.852   1.069 -11.454
-0.0537 2.482  -1.459 -11.309
-0.1269 5.616   0.643 -11.341
-0.1269 3.761   2.153 -11.309
-0.1349 5.135   1.978 -11.207
0.1301 5.077  -1.508 -11.232
0.1301 1.798   1.253 -11.578
0.0441 1.705  -1.465 -10.576
0.0441 1.863  -1.586 -12.270
0.0441 3.150  -2.293 -11.143
0.1301 6.748   0.441 -11.364
0.1301 3.339   3.182 -11.164
0.1301 5.772   2.815 -11.056
-0.0772 7.431  -0.531  -6.710
-0.1309 8.091  -1.386  -5.802
-0.1309 6.443   0.361  -6.267
-0.0537 7.814  -0.458  -8.177
-0.1269 7.784  -1.358  -4.379
-0.1269 6.134   0.392  -4.905
-0.1349 6.747  -0.500  -3.956
0.1301 8.766  -2.109  -6.249
0.1301 5.940   1.141  -6.941
0.0441 8.213   0.486  -8.417
0.0441 8.489  -1.299  -8.517
0.0441 6.885  -0.518  -8.886
0.1301 8.222  -2.021  -3.679
0.1301 5.380   1.007  -4.577
0.1301 6.472  -0.625  -2.925
-0.0772 23.264   9.054   3.154
-0.1309 22.121   8.868   2.458
-0.1309 23.260   9.953   4.239
-0.0537 24.541   8.564   2.529
-0.1269 20.946   9.397   2.898
-0.1269 22.087  10.480   4.767
-0.1349 20.911  10.223   4.064
0.1301 22.122   8.332   1.536
0.1301 24.158  10.139   4.774
0.0441 25.040   9.376   2.038
0.0441 25.255   8.151   3.292
0.0441 24.340   7.792   1.823
0.1301 20.028   9.209   2.313
0.1301 22.106  11.046   5.667
0.1301 19.895  10.722   4.349
-0.0772 7.550   2.657 -13.890
-0.1309 8.557   1.667 -14.013
-0.1309 7.805   3.769 -13.159
-0.0537 6.263   2.487 -14.551
-0.1269 9.811   1.871 -13.452
-0.1269 9.055   4.002 -12.520
-0.1349 10.052   2.996 -12.668
0.1301 8.426   0.756 -14.603
0.1301 6.997   4.478 -12.973
0.0441 5.615   1.772 -13.968
0.0441 5.754   3.418 -14.816
0.0441 6.415   2.049 -15.541
0.1301 10.652   1.203 -13.577
0.1301 9.240   4.872 -11.809
0.1301 11.040   3.055 -12.210
-0.0772 14.827 -13.877  -2.310
-0.1309 15.164 -12.510  -2.126
-0.1309 15.812 -14.680  -2.888
-0.0537 13.435 -14.300  -1.881
-0.1269 16.417 -12.040  -2.508
-0.1269 17.061 -14.212  -3.238
-0.1349 17.345 -12.874  -3.119
0.1301 14.399 -11.847  -1.656
0.1301 15.420 -15.686  -3.166
0.0441 12.624 -13.989  -2.632
0.0441 13.449 -15.384  -1.913
0.0441 13.208 -13.966  -0.859
0.1301 16.669 -10.994  -2.324
0.1301 17.801 -14.888  -3.588
0.1301 18.308 -12.504  -3.400
-0.0772 11.309  15.523 -20.477
-0.1309 11.347  15.672 -21.903
-0.1309 12.498  15.607 -19.751
-0.0537 10.022  15.178 -19.778
-0.1269 12.513  15.938 -22.625
-0.1269 13.675  15.847 -20.455
-0.1349 13.648  16.015 -21.835
0.1301 10.484  15.748 -22.558
0.1301 12.485  15.402 -18.688
0.0441 9.889  15.681 -18.886
0.0441 9.134  15.447 -20.352
0.0441 9.969  14.136 -19.536
0.1301 12.596  16.090 -23.744
0.1301 14.612  15.965 -19.869
0.1301 14.571  16.205 -22.366
-0.0772 -10.614  22.113  -8.999
-0.1309 -9.618  22.711  -8.148
-0.1309 -11.610  22.807  -9.593
-0.0537 -10.560  20.582  -9.233
-0.1269 -9.676  24.127  -8.130
-0.1269 -11.660  24.219  -9.531
-0.1349 -10.683  24.850  -8.712
0.1301 -8.796  22.174  -7.659
0.1301 -12.395  22.315 -10.239
0.0441 -11.009  20.194 -10.144
0.0441 -9.532  20.234  -9.417
0.0441 -10.960  20.081  -8.335
0.1301 -8.968  24.662  -7.591
0.1301 -12.302  24.918 -10.025
0.1301 -10.548  25.902  -8.664
-0.0772 -11.182  11.161  -2.203
-0.1309 -10.212  11.967  -1.505
-0.1309 -12.249  11.796  -2.791
-0.0537 -10.991   9.624  -2.124
-0.1269 -10.285  13.315  -1.446
-0.1269 -12.396  13.217  -2.682
-0.1349 -11.378  13.941  -1.989
0.1301 -9.360  11.496  -1.146
0.1301 -13.059  11.226  -3.253
0.0441 -11.897   9.238  -1.685
0.0441 -10.857   9.127  -3.064
0.0441 -10.063   9.454  -1.468
0.1301 -9.456  13.935  -0.944
0.1301 -13.267  13.787  -3.069
0.1301 -11.357  15.017  -1.989
-0.0772 22.119  -1.860  18.600
-0.1309 21.875  -2.983  19.375
-0.1309 21.038  -1.317  17.898
-0.0537 23.604  -1.468  18.339
-0.1269 20.586  -3.544  19.531
-0.1269 19.718  -1.768  18.130
-0.1349 19.501  -2.891  18.981
0.1301 22.671  -3.602  19.775
0.1301 21.256  -0.454  17.258
0.0441 23.828  -0.513  18.734
0.0441 24.385  -2.127  18.735
0.0441 23.774  -1.318  17.205
0.1301 20.439  -4.482  20.137
0.1301 18.890  -1.206  17.708
0.1301 18.463  -3.261  19.242
-0.0772 23.366  16.464  10.721
-0.1309 22.593  17.107  11.615
-0.1309 22.960  15.199  10.185
-0.0537 24.684  17.141  10.197
-0.1269 21.328  16.553  12.047
-0.1269 21.730  14.668  10.628
-0.1349 21.036  15.279  11.684
0.1301 22.823  18.044  12.084
0.1301 23.613  14.791   9.426
0.0441 25.556  17.104  10.838
0.0441 24.996  16.727   9.170
0.0441 24.475  18.230   9.946
0.1301 20.681  17.090  12.803
0.1301 21.425  13.697  10.248
0.1301 20.115  14.834  11.976
-0.0772 14.847  11.327 -21.283
-0.1309 14.603  10.111 -21.917
-0.1309 13.783  12.032 -20.724
-0.0537 16.196  11.871 -21.234
-0.1269 13.403   9.479 -21.712
-0.1269 12.587  11.354 -20.592
-0.1349 12.458   9.990 -20.823
0.1301 15.347   9.618 -22.533
0.1301 13.873  13.020 -20.262
0.0441 16.246  12.856 -20.867
0.0441 16.904  11.271 -20.677
0.0441 16.616  11.977 -22.268
0.1301 13.373   8.496 -22.142
0.1301 11.721  11.903 -20.152
0.1301 11.499   9.510 -20.591
-0.0772 -6.717  14.838 -16.033
-0.1309 -5.734  15.830 -15.752
-0.1309 -8.009  15.009 -15.493
-0.0537 -6.290  13.599 -16.823
-0.1269 -5.977  16.964 -14.973
-0.1269 -8.261  16.127 -14.684
-0.1349 -7.240  17.141 -14.415
0.1301 -4.646  15.640 -16.081
0.1301 -8.789  14.310 -15.731
0.0441 -6.611  13.861 -17.861
0.0441 -5.196  13.440 -16.762
0.0441 -6.808  12.660 -16.538
0.1301 -5.182  17.722 -14.858
0.1301 -9.205  16.117 -14.157
0.1301 -7.452  18.065 -13.825
-0.0772 13.356  -2.752   1.171
-0.1309 14.056  -3.760   0.492
-0.1309 14.066  -1.974   2.136
-0.0537 11.864  -2.498   1.080
-0.1269 15.436  -3.977   0.713
-0.1269 15.478  -2.112   2.192
-0.1349 16.198  -3.052   1.434
0.1301 13.466  -4.361  -0.243
0.1301 13.550  -1.195   2.707
0.0441 11.717  -1.503   0.760
0.0441 11.354  -3.167   0.378
0.0441 11.364  -2.660   2.040
0.1301 15.798  -4.878   0.215
0.1301 15.988  -1.293   2.647
0.1301 17.302  -3.117   1.586
-0.0772 2.893  24.637   3.735
-0.1309 2.885  24.669   2.304
-0.1309 1.912  23.824   4.291
-0.0537 3.866  25.426   4.647
-0.1269 1.954  23.987   1.510
-0.1269 1.044  23.046   3.536
-0.1349 1.009  23.101   2.148
0.1301 3.558  25.278   1.691
0.1301 1.946  23.636   5.384
0.0441 3.445  25.469   5.719
0.0441 4.845  25.034   4.747
0.0441 4.082  26.444   4.283
0.1301 1.966  24.057   0.428
0.1301 0.354  22.454   4.080
0.1301 0.269  22.545   1.497
-0.0772 18.601  19.764 -14.318
-0.1309 17.448  19.778 -13.518
-0.1309 19.715  20.538 -13.967
-0.0537 18.699  18.795 -15.480
-0.1269 17.433  20.544 -12.281
-0.1269 19.732  21.203 -12.703
-0.1349 18.592  21.290 -11.873
0.1301 16.532  19.273 -13.750
0.1301 20.611  20.606 -14.583
0.0441 19.533  18.977 -16.192
0.0441 18.928  17.768 -15.232
0.0441 17.826  18.665 -16.156
0.1301 16.578  20.581 -11.540
0.1301 20.573  21.760 -12.345
0.1301 18.695  21.866 -10.940
-0.0772 12.396   2.698  -4.535
-0.1309 11.408   2.153  -5.414
-0.1309 13.535   3.260  -5.178
-0.0537 12.295   2.472  -3.031
-0.1269 11.431   2.313  -6.811
-0.1269 13.658   3.444  -6.529
-0.1349 12.528   3.095  -7.337
0.1301 10.616   1.592  -4.895
0.1301 14.344   3.833  -4.599
0.0441 11.234   2.572  -2.620
0.0441 12.579   1.487  -2.740
0.0441 12.928   3.242  -2.463
0.1301 10.637   1.910  -7.431
0.1301 14.543   4.026  -6.900
0.1301 12.697   3.266  -8.396
-0.0772 11.784  19.866  -8.070
-0.1309 11.112  20.318  -6.901
-0.1309 11.076  19.635  -9.242
-0.0537 13.329  19.701  -8.036
-0.1269 9.660  20.316  -6.952
-0.1269 9.657  19.829  -9.285
-0.1349 8.932  20.073  -8.101
0.1301 11.683  20.457  -5.954
0.1301 11.586  19.280 -10.111
0.0441 13.879  20.642  -7.775
0.0441 13.744  19.007  -7.289
0.0441 13.677  19.477  -9.045
0.1301 9.095  20.555  -6.075
0.1301 9.175  19.769 -10.240
0.1301 7.804  20.239  -8.045
-0.0772 9.364  -1.881  -1.231
-0.1309 8.093  -1.675  -0.690
-0.1309 9.709  -3.179  -1.711
-0.0537 10.313  -0.752  -1.610
-0.1269 7.163  -2.695  -0.447
-0.1269 8.835  -4.229  -1.462
-0.1349 7.616  -4.012  -0.721
0.1301 7.742  -0.638  -0.526
0.1301 10.688  -3.217  -2.204
0.0441 10.314   0.082  -0.931
0.0441 11.332  -1.084  -1.657
0.0441 10.166  -0.303  -2.575
0.1301 6.277  -2.486   0.034
0.1301 9.125  -5.222  -1.864
0.1301 6.880  -4.832  -0.513
-0.0772 12.432  16.598  -1.569
-0.1309 12.060  17.227  -0.349
-0.1309 13.682  16.926  -2.132
-0.0537 11.543  15.564  -2.320
-0.1269 12.839  18.264   0.198
-0.1269 14.460  17.954  -1.617
-0.1349 14.063  18.573  -0.444
0.1301 11.208  16.798   0.169
0.1301 13.982  16.390  -3.045
0.0441 12.084  14.990  -3.017
0.0441 11.121  14.854  -1.596
0.0441 10.822  16.067  -2.998
0.1301 12.667  18.696   1.199
0.1301 15.421  18.154  -2.055
0.1301 14.842  19.172   0.034
-0.0772 4.072 -12.629 -11.130
-0.1309 3.974 -12.893  -9.736
-0.1309 5.382 -12.642 -11.650
-0.0537 2.813 -12.051 -11.870
-0.1269 5.036 -13.278  -8.964
-0.1269 6.491 -13.046 -10.846
-0.1349 6.285 -13.448  -9.521
0.1301 2.995 -12.681  -9.250
0.1301 5.577 -12.205 -12.595
0.0441 2.118 -11.546 -11.166
0.0441 3.071 -11.331 -12.683
0.0441 2.348 -12.905 -12.471
0.1301 4.843 -13.281  -7.902
0.1301 7.542 -13.083 -11.215
0.1301 7.192 -13.687  -8.917
-0.0772 4.917  15.431 -14.626
-0.1309 5.092  14.164 -14.044
-0.1309 3.624  16.047 -14.513
-0.0537 5.925  16.240 -15.423
-0.1269 4.019  13.466 -13.440
-0.1269 2.721  15.418 -13.691
-0.1349 2.832  14.094 -13.276
0.1301 6.023  13.649 -14.229
0.1301 3.348  17.054 -14.889
0.0441 5.764  17.328 -15.497
0.0441 6.911  16.038 -14.961
0.0441 5.951  15.913 -16.450
0.1301 4.165  12.468 -13.015
0.1301 1.780  16.043 -13.482
0.1301 1.967  13.557 -12.749
-0.0772 5.774  17.626  -5.549
-0.1309 4.765  16.890  -4.871
-0.1309 5.662  19.045  -5.618
-0.0537 7.074  16.914  -5.986
-0.1269 3.457  17.463  -4.692
-0.1269 4.442  19.692  -5.227
-0.1349 3.336  18.875  -4.724
0.1301 4.913  15.815  -4.699
0.1301 6.497  19.631  -5.950
0.0441 7.683  16.844  -5.087
0.0441 6.988  15.912  -6.505
0.0441 7.690  17.593  -6.612
0.1301 2.608  16.879  -4.245
0.1301 4.331  20.765  -5.087
0.1301 2.357  19.294  -4.520
-0.0772 8.621  15.572 -10.440
-0.1309 8.874  14.203 -10.316
-0.1309 7.366  16.005  -9.914
-0.0537 9.564  16.521 -11.073
-0.1269 8.091  13.352  -9.567
-0.1269 6.491  15.144  -9.316
-0.1349 6.824  13.811  -9.098
0.1301 9.750  13.807 -10.917
0.1301 7.024  17.048 -10.034
0.0441 9.053  17.222 -11.766
0.0441 10.238  17.178 -10.381
0.0441 10.256  15.959 -11.730
0.1301 8.397  12.359  -9.377
0.1301 5.540  15.463  -9.003
0.1301 6.150  13.249  -8.577
-0.0772 5.637 -10.556  -5.464
-0.1309 5.039 -10.636  -6.759
-0.1309 6.738  -9.767  -5.224
-0.0537 5.062 -11.325  -4.352
-0.1269 5.638  -9.935  -7.811
-0.1269 7.279  -9.086  -6.279
-0.1349 6.783  -9.195  -7.586
0.1301 4.136 -11.191  -6.896
0.1301 7.088  -9.479  -4.220
0.0441 4.189 -10.709  -3.927
0.0441 4.658 -12.390  -4.673
0.0441 5.716 -11.546  -3.436
0.1301 5.138  -9.978  -8.781
0.1301 8.080  -8.515  -6.009
0.1301 7.261  -8.685  -8.352
-0.0772 22.193   2.865 -17.860
-0.1309 21.974   2.835 -16.460
-0.1309 23.469   3.292 -18.358
-0.0537 21.096   2.362 -18.823
-0.1269 22.961   3.162 -15.525
-0.1269 24.392   3.781 -17.441
-0.1349 24.209   3.677 -15.981
0.1301 20.993   2.501 -16.082
0.1301 23.654   3.241 -19.473
0.0441 21.258   2.729 -19.875
0.0441 21.180   1.295 -18.872
0.0441 20.183   2.709 -18.489
0.1301 22.691   3.121 -14.441
0.1301 25.370   4.097 -17.845
0.1301 24.986   3.894 -15.288
-0.0772 -0.098   1.479  -7.825
-0.1309 0.251   2.702  -8.326
-0.1309 0.833   0.708  -7.107
-0.0537 -1.496   0.917  -7.984
-0.1269 1.584   3.098  -8.301
-0.1269 2.165   1.139  -7.011
-0.1349 2.541   2.314  -7.657
0.1301 -0.603   3.328  -8.664
0.1301 0.562  -0.187  -6.565
0.0441 -2.216   1.688  -7.744
0.0441 -1.634   0.611  -8.960
0.0441 -1.651   0.021  -7.370
0.1301 1.848   3.994  -8.836
0.1301 2.991   0.669  -6.575
0.1301 3.619   2.540  -7.690
-0.0772 7.185  -9.622  14.301
-0.1309 7.334  -8.801  13.196
-0.1309 7.605 -10.981  14.286
-0.0537 6.641  -8.966  15.540
-0.1269 7.784  -9.333  11.984
-0.1269 8.049 -11.515  13.124
-0.1349 8.150 -10.696  11.936
0.1301 6.939  -7.768  13.208
0.1301 7.499 -11.520  15.189
0.0441 6.989  -9.444  16.397
0.0441 6.793  -7.881  15.696
0.0441 5.588  -9.241  15.587
0.1301 7.902  -8.698  11.101
0.1301 8.303 -12.577  13.090
0.1301 8.490 -11.115  10.985
-0.0772 10.460   0.907   5.260
-0.1309 10.358   1.148   6.642
-0.1309 9.665   1.576   4.360
-0.0537 11.483  -0.097   4.747
-0.1269 9.405   2.089   7.059
-0.1269 8.841   2.667   4.795
-0.1349 8.663   2.866   6.165
0.1301 10.909   0.543   7.382
0.1301 9.782   1.356   3.334
0.0441 12.544   0.119   4.976
0.0441 11.473  -1.113   5.144
0.0441 11.469  -0.205   3.625
0.1301 9.260   2.275   8.123
0.1301 8.264   3.216   4.053
0.1301 7.920   3.513   6.554
-0.0772 18.480  -6.738 -17.480
-0.1309 18.866  -6.225 -16.187
-0.1309 17.963  -8.024 -17.628
-0.0537 18.683  -5.920 -18.801
-0.1269 18.783  -7.083 -15.063
-0.1269 17.677  -8.759 -16.421
-0.1349 18.200  -8.409 -15.196
0.1301 19.331  -5.254 -16.102
0.1301 17.644  -8.417 -18.546
0.0441 19.793  -5.849 -19.067
0.0441 18.089  -6.416 -19.618
0.0441 18.328  -4.831 -18.827
0.1301 19.048  -6.804 -14.089
0.1301 17.299  -9.705 -16.565
0.1301 18.007  -8.993 -14.304
-0.0772 7.756  20.396   2.382
-0.1309 8.509  20.270   1.209
-0.1309 8.375  20.423   3.652
-0.0537 6.248  20.357   2.257
-0.1269 9.895  20.453   1.367
-0.1269 9.766  20.404   3.825
-0.1349 10.498  20.388   2.654
0.1301 8.078  20.018   0.287
0.1301 7.671  20.455   4.545
0.0441 5.785  19.466   2.657
0.0441 5.823  21.209   2.806
0.0441 5.893  20.428   1.196
0.1301 10.515  20.577   0.459
0.1301 10.307  20.684   4.807
0.1301 11.575  20.422   2.751
-0.0772 12.819   3.567 -20.553
-0.1309 14.123   3.184 -20.942
-0.1309 11.928   2.606 -19.873
-0.0537 12.407   5.066 -20.710
-0.1269 14.432   1.869 -20.926
-0.1269 12.342   1.291 -19.850
-0.1349 13.602   0.915 -20.365
0.1301 14.801   3.902 -21.412
0.1301 10.918   2.911 -19.450
0.0441 12.838   5.503 -21.611
0.0441 11.354   5.264 -20.838
0.0441 12.769   5.741 -19.940
0.1301 15.381   1.525 -21.385
0.1301 11.665   0.550 -19.357
0.1301 14.006  -0.070 -20.407
-0.0772 7.840   8.484 -18.843
-0.1309 8.751   7.935 -19.803
-0.1309 6.909   9.465 -19.245
-0.0537 7.964   7.985 -17.434
-0.1269 8.629   8.324 -21.142
-0.1269 6.860   9.904 -20.535
-0.1349 7.674   9.272 -21.483
0.1301 9.392   7.131 -19.387
0.1301 6.182   9.953 -18.523
0.0441 8.398   8.810 -16.819
0.0441 6.955   7.768 -17.003
0.0441 8.592   7.136 -17.326
0.1301 9.174   7.806 -21.898
0.1301 6.074  10.601 -20.856
0.1301 7.648   9.566 -22.560
-0.0772 -2.285  22.015 -18.870
-0.1309 -1.954  21.060 -17.855
-0.1309 -1.295  22.407 -19.777
-0.0537 -3.761  22.379 -18.923
-0.1269 -0.630  20.617 -17.715
-0.1269 0.030  22.002 -19.667
-0.1349 0.396  21.122 -18.576
0.1301 -2.717  20.784 -17.169
0.1301 -1.662  22.910 -20.651
0.0441 -4.209  22.325 -17.909
0.0441 -3.840  23.439 -19.213
0.0441 -4.420  21.694 -19.499
0.1301 -0.413  19.879 -16.934
0.1301 0.846  22.342 -20.357
0.1301 1.316  20.703 -18.519
-0.0772 13.727   1.352 -11.118
-0.1309 13.443   0.510 -12.212
-0.1309 14.178   2.676 -11.314
-0.0537 13.585   0.754  -9.699
-0.1269 13.472   1.050 -13.461
-0.1269 14.357   3.122 -12.601
-0.1349 14.004   2.310 -13.653
0.1301 13.100  -0.528 -12.046
0.1301 14.346   3.413 -10.506
0.0441 12.552   0.455  -9.563
0.0441 14.227  -0.153  -9.600
0.0441 13.885   1.506  -8.909
0.1301 13.275   0.443 -14.316
0.1301 14.631   4.116 -12.859
0.1301 14.129   2.707 -14.639
-0.0772 -1.932 -10.520  21.196
-0.1309 -0.723 -11.119  21.575
-0.1309 -1.919  -9.160  20.789
-0.0537 -3.155 -11.285  20.963
-0.1269 0.482 -10.404  21.462
-0.1269 -0.726  -8.408  20.809
-0.1349 0.430  -9.022  21.289
0.1301 -0.696 -12.230  21.667
0.1301 -2.836  -8.696  20.298
0.0441 -2.915 -12.374  20.875
0.0441 -3.963 -11.207  21.701
0.0441 -3.631 -11.034  20.014
0.1301 1.450 -10.863  21.600
0.1301 -0.662  -7.450  20.462
0.1301 1.352  -8.364  21.228
-0.0772 8.723   5.498   8.886
-0.1309 7.391   5.819   8.631
-0.1309 8.944   4.402   9.719
-0.0537 9.835   6.203   8.191
-0.1269 6.329   5.084   9.166
-0.1269 7.908   3.613  10.278
-0.1349 6.615   3.910   9.866
0.1301 7.130   6.631   8.006
0.1301 9.969   4.180   9.872
0.0441 9.894   7.207   8.638
0.0441 10.790   5.766   8.371
0.0441 9.671   6.258   7.120
0.1301 5.355   5.272   8.881
0.1301 8.147   2.749  10.992
0.1301 5.757   3.487  10.315
-0.0772 14.530  23.398  -4.651
-0.1309 15.685  23.806  -3.945
-0.1309 13.844  22.231  -4.239
-0.0537 14.132  24.115  -5.842
-0.1269 16.116  23.044  -2.850
-0.1269 14.327  21.468  -3.174
-0.1349 15.457  21.869  -2.435
0.1301 16.196  24.733  -4.129
0.1301 13.064  21.913  -4.856
0.0441 14.642  23.567  -6.711
0.0441 12.999  24.162  -5.929
0.0441 14.542  25.169  -5.938
0.1301 17.081  23.400  -2.373
0.1301 13.771  20.491  -2.864
0.1301 15.719  21.321  -1.531
-0.0772 1.736 -15.576  15.544
-0.1309 1.212 -16.162  14.344
-0.1309 3.123 -15.752  15.808
-0.0537 0.825 -14.879  16.549
-0.1269 2.080 -16.863  13.526
-0.1269 3.984 -16.425  14.922
-0.1349 3.445 -17.011  13.763
0.1301 0.089 -16.078  14.147
0.1301 3.493 -15.359  16.807
0.0441 1.377 -14.700  17.512
0.0441 0.587 -13.863  16.314
0.0441 -0.190 -15.318  16.727
0.1301 1.577 -17.391  12.699
0.1301 5.071 -16.619  15.180
0.1301 4.073 -17.462  13.047
-0.0772 -12.420 -17.665   5.349
-0.1309 -11.895 -16.432   5.699
-0.1309 -13.837 -17.773   5.212
-0.0537 -11.561 -18.863   5.068
-0.1269 -12.786 -15.334   5.922
-0.1269 -14.674 -16.711   5.545
-0.1349 -14.141 -15.467   5.894
0.1301 -10.799 -16.262   5.849
0.1301 -14.342 -18.726   5.019
0.0441 -10.653 -18.550   4.569
0.0441 -11.186 -19.276   6.049
0.0441 -12.063 -19.626   4.554
0.1301 -12.381 -14.336   6.259
0.1301 -15.745 -16.896   5.470
0.1301 -14.776 -14.647   6.217
-0.0772 13.035 -15.032  10.813
-0.1309 12.363 -16.107  10.113
-0.1309 12.335 -14.288  11.774
-0.0537 14.498 -14.863  10.690
-0.1269 11.095 -16.501  10.549
-0.1269 10.970 -14.563  12.001
-0.1349 10.371 -15.701  11.445
0.1301 12.836 -16.569   9.323
0.1301 12.847 -13.553  12.304
0.0441 15.097 -15.504  11.374
0.0441 14.883 -15.090   9.673
0.0441 14.675 -13.743  10.692
0.1301 10.488 -17.335  10.071
0.1301 10.439 -13.883  12.731
0.1301 9.366 -15.902  11.668
-0.0772 9.446   6.330  16.238
-0.1309 9.874   5.097  15.848
-0.1309 10.067   7.483  15.728
-0.0537 8.214   6.458  17.161
-0.1269 10.887   5.009  14.842
-0.1269 11.110   7.391  14.800
-0.1349 11.495   6.150  14.281
0.1301 9.425   4.155  16.179
0.1301 9.757   8.409  16.142
0.0441 8.479   6.142  18.208
0.0441 7.866   7.477  17.005
0.0441 7.446   5.761  16.850
0.1301 11.091   4.051  14.469
0.1301 11.594   8.274  14.383
0.1301 12.215   6.047  13.488
-0.0772 12.587 -10.321   9.676
-0.1309 13.443 -11.388   9.199
-0.1309 13.188  -9.271  10.381
-0.0537 11.069 -10.488   9.619
-0.1269 14.807 -11.281   9.203
-0.1269 14.581  -9.257  10.500
-0.1349 15.396 -10.207   9.923
0.1301 12.946 -12.262   8.721
0.1301 12.542  -8.479  10.734
0.0441 10.690 -11.164  10.394
0.0441 10.629  -9.484   9.879
0.0441 10.671 -10.850   8.694
0.1301 15.418 -12.088   8.783
0.1301 15.089  -8.578  11.171
0.1301 16.422 -10.093  10.036
-0.0772 -3.905   5.772  21.956
-0.1309 -3.534   6.895  22.625
-0.1309 -5.254   5.448  21.930
-0.0537 -2.861   4.848  21.424
-0.1269 -4.534   7.713  23.182
-0.1269 -6.181   6.214  22.482
-0.1349 -5.879   7.355  23.211
0.1301 -2.501   7.124  22.513
0.1301 -5.590   4.548  21.376
0.0441 -2.015   5.363  20.933
0.0441 -2.526   4.169  22.190
0.0441 -3.224   4.226  20.615
0.1301 -4.298   8.679  23.532
0.1301 -7.205   6.052  22.295
0.1301 -6.692   7.926  23.634
-0.0772 19.714   5.607  22.756
-0.1309 20.374   6.605  22.056
-0.1309 18.654   5.934  23.597
-0.0537 20.144   4.160  22.757
-0.1269 20.052   7.929  22.317
-0.1269 18.200   7.270  23.779
-0.1349 19.005   8.269  23.153
0.1301 21.169   6.344  21.374
0.1301 18.303   5.199  24.280
0.0441 20.397   3.797  23.782
0.0441 19.375   3.383  22.590
0.0441 21.087   4.093  22.212
0.1301 20.553   8.738  21.694
0.1301 17.420   7.552  24.525
0.1301 18.844   9.337  23.355
-0.0772 18.479  -0.268  12.557
-0.1309 17.676  -1.286  12.119
-0.1309 18.713   0.868  11.780
-0.0537 19.146  -0.384  13.895
-0.1269 17.111  -1.178  10.819
-0.1269 18.104   0.975  10.511
-0.1349 17.365  -0.067   9.986
0.1301 17.327  -1.996  12.850
0.1301 19.395   1.575  12.185
0.0441 19.785   0.509  14.100
0.0441 18.468  -0.512  14.720
0.0441 19.802  -1.237  13.871
0.1301 16.547  -1.994  10.428
0.1301 18.318   1.893   9.947
0.1301 16.898   0.085   8.995
-0.0772 6.899  -0.572  13.927
-0.1309 7.931   0.258  14.217
-0.1309 5.562  -0.119  14.160
-0.0537 7.166  -1.909  13.289
-0.1269 7.710   1.477  14.838
-0.1269 5.333   1.109  14.807
-0.1349 6.428   1.909  15.120
0.1301 8.927  -0.089  13.973
0.1301 4.729  -0.667  13.781
0.0441 7.369  -2.709  14.050
0.0441 6.200  -2.306  12.914
0.0441 8.017  -1.971  12.602
0.1301 8.514   2.146  15.055
0.1301 4.355   1.394  15.014
0.1301 6.255   2.830  15.596
-0.0772 -1.547   1.240  19.373
-0.1309 -2.687   0.506  19.043
-0.1309 -1.356   1.593  20.748
-0.0537 -0.727   1.712  18.229
-0.1269 -3.452   0.012  20.139
-0.1269 -2.159   1.153  21.788
-0.1349 -3.119   0.207  21.468
0.1301 -2.971   0.311  18.030
0.1301 -0.507   2.180  21.013
0.0441 -1.313   1.932  17.314
0.0441 -0.199   2.678  18.533
0.0441 0.029   0.981  17.983
0.1301 -4.240  -0.679  19.838
0.1301 -1.944   1.548  22.761
0.1301 -3.842  -0.198  22.229
-0.0772 10.079   9.869  22.343
-0.1309 11.254  10.556  21.890
-0.1309 9.416   8.933  21.510
-0.0537 9.533  10.104  23.751
-0.1269 11.775  10.277  20.628
-0.1269 9.824   8.816  20.197
-0.1349 11.013   9.425  19.760
0.1301 11.674  11.321  22.438
0.1301 8.512   8.395  21.870
0.0441 10.315  10.346  24.469
0.0441 8.879  11.035  23.729
0.0441 8.996   9.205  24.043
0.1301 12.705  10.677  20.235
0.1301 9.238   8.112  19.603
0.1301 11.410   9.244  18.792
-0.0772 23.434  -3.230  -5.257
-0.1309 23.255  -4.322  -6.120
-0.1309 23.755  -3.393  -3.921
-0.0537 23.192  -1.823  -5.847
-0.1269 23.429  -5.608  -5.597
-0.1269 23.972  -4.649  -3.391
-0.1349 23.640  -5.769  -4.155
0.1301 23.036  -4.151  -7.188
0.1301 23.843  -2.500  -3.334
0.0441 22.750  -1.122  -5.163
0.0441 24.163  -1.423  -6.126
0.0441 22.438  -1.907  -6.640
0.1301 23.380  -6.442  -6.256
0.1301 24.176  -4.836  -2.364
0.1301 23.601  -6.728  -3.659
-0.0772 17.081 -19.412  -4.090
-0.1309 17.025 -20.185  -2.941
-0.1309 17.327 -20.081  -5.298
-0.0537 16.970 -17.899  -4.200
-0.1269 17.117 -21.570  -2.946
-0.1269 17.401 -21.477  -5.363
-0.1349 17.241 -22.260  -4.147
0.1301 16.641 -19.622  -2.058
0.1301 17.412 -19.439  -6.135
0.0441 17.842 -17.415  -4.626
0.0441 16.233 -17.644  -4.888
0.0441 16.727 -17.472  -3.219
0.1301 17.059 -22.272  -2.017
0.1301 17.467 -22.027  -6.246
0.1301 17.195 -23.343  -4.131
-0.0772 0.303 -18.009   9.426
-0.1309 0.670 -16.706   9.098
-0.1309 -0.558 -18.261  10.483
-0.0537 1.091 -19.161   8.804
-0.1269 0.107 -15.589   9.799
-0.1269 -1.145 -17.164  11.163
-0.1349 -0.778 -15.826  10.791
0.1301 1.366 -16.514   8.295
0.1301 -0.899 -19.211  10.845
0.0441 1.889 -19.366   9.498
0.0441 0.539 -20.120   8.801
0.0441 1.578 -18.931   7.782
0.1301 0.347 -14.559   9.546
0.1301 -1.830 -17.390  11.978
0.1301 -1.263 -14.964  11.338
-0.0772 -0.268  -6.504  15.724
-0.1309 0.355  -7.735  15.418
-0.1309 -0.125  -5.846  16.977
-0.0537 -0.949  -5.705  14.647
-0.1269 0.944  -8.399  16.493
-0.1269 0.673  -6.446  17.935
-0.1349 1.134  -7.771  17.738
0.1301 0.276  -8.271  14.479
0.1301 -0.487  -4.806  17.001
0.0441 -1.454  -6.362  13.976
0.0441 -1.816  -5.138  15.099
0.0441 -0.191  -5.081  14.176
0.1301 1.354  -9.452  16.455
0.1301 0.944  -5.948  18.866
0.1301 1.569  -8.365  18.574
-0.0772 13.589  10.637  -0.296
-0.1309 14.713  11.409  -0.091
-0.1309 12.658  10.938  -1.284
-0.0537 13.209   9.540   0.692
-0.1269 14.954  12.510  -0.991
-0.1269 12.890  12.032  -2.198
-0.1349 14.069  12.797  -2.067
0.1301 15.389  11.253   0.711
0.1301 11.708  10.439  -1.256
0.0441 13.975   8.799   0.706
0.0441 13.036   9.962   1.675
0.0441 12.266   9.028   0.557
0.1301 15.857  13.134  -1.004
0.1301 12.054  12.338  -2.854
0.1301 14.219  13.621  -2.702
-0.0772 21.785  -8.794  -0.417
-0.1309 21.711 -10.822   1.110
-0.1309 20.581  -8.946  -1.628
-0.0537 22.504  -7.377  -0.583
-0.1269 20.503 -11.956   0.685
-0.1269 19.552 -10.331  -1.752
-0.1349 19.471 -11.609  -0.616
0.1301 22.352 -11.099   1.997
0.1301 20.446  -8.323  -2.413
0.0441 22.286  -6.644   0.286
0.0441 23.573  -7.508  -0.595
0.0441 22.366  -6.898  -1.531
0.1301 20.275 -12.853   1.275
0.1301 18.852 -10.295  -2.561
0.1301 18.783 -12.393  -0.825
-0.0772 -0.481   2.807  14.442
-0.1309 -0.284   4.189  14.289
-0.1309 0.525   2.032  14.947
-0.0537 -1.836   2.083  14.108
-0.1269 0.829   4.776  14.780
-0.1269 1.685   2.575  15.480
-0.1349 1.811   3.981  15.423
0.1301 -1.126   4.736  13.986
0.1301 0.399   0.949  14.964
0.0441 -2.277   1.601  15.067
0.0441 -2.540   2.825  13.776
0.0441 -1.615   1.410  13.289
0.1301 1.019   5.879  14.729
0.1301 2.474   2.029  15.997
0.1301 2.629   4.418  15.841
-0.0772 16.716  -5.155  12.364
-0.1309 15.343  -5.298  12.622
-0.1309 17.146  -4.928  11.070
-0.0537 17.787  -5.155  13.449
-0.1269 14.431  -5.398  11.561
-0.1269 16.213  -5.024  10.004
-0.1349 14.840  -5.320  10.205
0.1301 14.993  -5.435  13.677
0.1301 18.227  -4.819  10.816
0.0441 18.480  -4.312  13.234
0.0441 17.344  -5.010  14.423
0.0441 18.465  -6.054  13.560
0.1301 13.357  -5.582  11.827
0.1301 16.544  -4.871   8.990
0.1301 14.221  -5.288   9.407
-0.0772 15.666   5.908  19.644
-0.1309 15.917   5.148  18.444
-0.1309 14.382   6.547  19.735
-0.0537 16.841   6.106  20.611
-0.1269 14.960   4.951  17.442
-0.1269 13.415   6.404  18.745
-0.1349 13.674   5.526  17.661
0.1301 16.878   4.714  18.245
0.1301 14.140   7.256  20.577
0.0441 17.043   7.205  20.835
0.0441 16.714   5.596  21.526
0.0441 17.780   5.806  20.148
0.1301 15.189   4.524  16.485
0.1301 12.544   6.956  18.760
0.1301 12.935   5.491  16.854
-0.0772 -11.448  -1.565  14.268
-0.1309 -11.158  -0.857  15.397
-0.1309 -11.484  -0.859  13.055
-0.0537 -11.533  -3.058  14.392
-0.1269 -10.807   0.485  15.402
-0.1269 -11.196   0.553  13.038
-0.1349 -10.816   1.234  14.204
0.1301 -11.014  -1.419  16.326
0.1301 -11.576  -1.436  12.146
0.0441 -10.564  -3.464  14.750
0.0441 -12.345  -3.382  14.990
0.0441 -11.662  -3.524  13.379
0.1301 -10.536   0.896  16.388
0.1301 -11.191   1.044  12.086
0.1301 -10.647   2.332  14.076
-0.0772 -14.320  10.024  12.291
-0.1309 -13.785  10.908  11.297
-0.1309 -14.876  10.548  13.425
-0.0537 -14.134   8.530  12.134
-0.1269 -13.980  12.291  11.401
-0.1269 -15.016  11.950  13.529
-0.1349 -14.675  12.811  12.492
0.1301 -13.252  10.429  10.444
0.1301 -15.172   9.881  14.244
0.0441 -15.060   7.951  12.209
0.0441 -13.550   8.285  11.245
0.0441 -13.459   8.255  12.967
0.1301 -13.652  13.006  10.674
0.1301 -15.486  12.306  14.400
0.1301 -14.753  13.885  12.606
-0.0772 -2.227 -21.030   3.994
-0.1309 -1.750 -20.621   5.251
-0.1309 -1.293 -21.294   3.000
-0.0537 -3.670 -21.307   3.724
-0.1269 -0.331 -20.417   5.442
-0.1269 0.085 -21.244   3.207
-0.1349 0.561 -20.748   4.455
0.1301 -2.496 -20.504   6.054
0.1301 -1.628 -21.626   1.968
0.0441 -4.166 -20.441   3.213
0.0441 -3.774 -22.226   3.145
0.0441 -4.270 -21.484   4.612
0.1301 0.006 -20.031   6.418
0.1301 0.795 -21.555   2.473
0.1301 1.634 -20.635   4.633
-0.0772 3.700  -4.797   1.401
-0.1309 2.627  -5.424   0.805
-0.1309 3.667  -3.405   1.589
-0.0537 4.917  -5.559   1.950
-0.1269 1.495  -4.683   0.380
-0.1269 2.617  -2.669   1.093
-0.1349 1.461  -3.303   0.566
0.1301 2.550  -6.489   0.677
0.1301 4.581  -3.026   2.033
0.0441 5.682  -4.951   2.442
0.0441 4.604  -6.385   2.636
0.0441 5.519  -6.035   1.141
0.1301 0.813  -5.159  -0.228
0.1301 2.665  -1.621   1.239
0.1301 0.687  -2.745   0.130
-0.0772 6.759 -10.731   2.850
-0.1309 7.402 -11.364   1.746
-0.1309 5.498 -10.137   2.723
-0.0537 7.447 -10.609   4.206
-0.1269 6.730 -11.339   0.481
-0.1269 4.813 -10.209   1.518
-0.1349 5.457 -10.821   0.371
0.1301 8.421 -11.669   1.858
0.1301 4.948  -9.584   3.453
0.0441 8.267 -11.298   4.333
0.0441 7.820  -9.628   4.331
0.0441 6.755 -10.804   5.059
0.1301 7.225 -11.768  -0.377
0.1301 3.865  -9.679   1.392
0.1301 4.942 -10.756  -0.599
-0.0772 1.186  -4.327   6.509
-0.1309 0.337  -5.402   6.193
-0.1309 1.599  -3.432   5.507
-0.0537 1.902  -4.291   7.808
-0.1269 -0.289  -5.499   4.931
-0.1269 1.002  -3.510   4.239
-0.1349 0.046  -4.487   3.956
0.1301 0.113  -6.231   6.882
0.1301 2.470  -2.790   5.735
0.0441 2.957  -4.022   7.699
0.0441 1.585  -3.490   8.521
0.0441 1.767  -5.238   8.382
0.1301 -1.020  -6.319   4.646
0.1301 1.317  -2.907   3.433
0.1301 -0.345  -4.538   2.993
-0.0772 8.670  -2.997   3.571
-0.1309 7.953  -3.188   4.762
-0.1309 8.962  -4.124   2.811
-0.0537 8.935  -1.635   3.063
-0.1269 7.644  -4.422   5.301
-0.1269 8.713  -5.399   3.318
-0.1349 8.163  -5.546   4.592
0.1301 7.555  -2.362   5.349
0.1301 9.407  -4.041   1.804
0.0441 9.909  -1.500   2.621
0.0441 8.349  -1.438   2.133
0.0441 8.793  -0.879   3.840
0.1301 6.875  -4.571   6.110
0.1301 9.048  -6.230   2.656
0.1301 7.966  -6.542   4.907
-0.0772 15.733  -9.711   2.308
-0.1309 15.174 -10.274   1.129
-0.1309 15.518  -8.286   2.599
-0.0537 16.396 -10.604   3.337
-0.1269 14.498  -9.448   0.238
-0.1269 14.843  -7.448   1.738
-0.1349 14.316  -8.054   0.567
0.1301 15.024 -11.357   0.931
0.1301 15.863  -7.877   3.571
0.0441 16.261 -11.624   3.022
0.0441 17.437 -10.335   3.350
0.0441 16.045 -10.259   4.303
0.1301 13.994  -9.916  -0.565
0.1301 14.723  -6.440   2.000
0.1301 13.843  -7.429  -0.195
-0.0772 11.691 -25.380  -6.319
-0.1309 11.440 -24.036  -6.220
-0.1309 13.007 -25.839  -6.334
-0.0537 10.588 -26.311  -6.827
-0.1269 12.453 -23.100  -5.953
-0.1269 14.032 -24.914  -6.184
-0.1349 13.759 -23.571  -5.828
0.1301 10.373 -23.735  -6.322
0.1301 13.300 -26.922  -6.545
0.0441 10.133 -25.819  -7.681
0.0441 11.038 -27.279  -7.079
0.0441 9.758 -26.418  -6.146
0.1301 12.255 -22.042  -5.901
0.1301 15.045 -25.340  -5.958
0.1301 14.572 -22.906  -5.694
-0.0772 22.960 -10.922   6.426
-0.1309 24.042 -11.345   7.302
-0.1309 23.111 -10.326   5.142
-0.0537 21.509 -10.956   7.075
-0.1269 25.353 -11.232   6.762
-0.1269 24.399 -10.137   4.773
-0.1349 25.533 -10.668   5.473
0.1301 23.862 -11.630   8.327
0.1301 22.224  -9.912   4.642
0.0441 20.900 -10.091   6.817
0.0441 20.960 -11.884   6.674
0.0441 21.617 -11.102   8.145
0.1301 26.224 -11.603   7.303
0.1301 24.492  -9.674   3.835
0.1301 26.571 -10.530   5.096
-0.0772 23.736   0.538  -2.337
-0.1309 24.806   0.255  -3.198
-0.1309 23.880   0.363  -0.916
-0.0537 22.301   0.891  -2.720
-0.1269 26.010  -0.125  -2.616
-0.1269 25.100  -0.027  -0.360
-0.1349 26.194  -0.173  -1.184
0.1301 24.821   0.386  -4.262
0.1301 23.039   0.608  -0.282
0.0441 22.096   0.261  -3.597
0.0441 21.604   0.493  -1.922
0.0441 22.147   1.919  -2.957
0.1301 26.825  -0.256  -3.316
0.1301 25.170  -0.119   0.759
0.1301 27.132  -0.477  -0.643
-0.0772 12.816  14.531  -6.087
-0.1309 11.486  14.389  -6.544
-0.1309 13.314  15.837  -5.774
-0.0537 13.793  13.313  -6.145
-0.1269 10.642  15.484  -6.375
-0.1269 12.492  16.930  -5.704
-0.1349 11.154  16.723  -5.921
0.1301 11.138  13.427  -6.965
0.1301 14.319  15.989  -5.484
0.0441 14.693  13.471  -5.531
0.0441 13.393  12.438  -5.612
0.0441 13.992  12.945  -7.163
0.1301 9.670  15.376  -6.686
0.1301 12.923  17.814  -5.347
0.1301 10.463  17.586  -5.754
-0.0772 19.432 -19.371   5.162
-0.1309 19.353 -20.180   6.260
-0.1309 20.245 -19.789   4.102
-0.0537 18.544 -18.136   5.061
-0.1269 19.925 -21.503   6.299
-0.1269 21.039 -20.960   4.200
-0.1349 20.860 -21.831   5.267
0.1301 18.620 -19.869   7.057
0.1301 20.184 -19.125   3.209
0.0441 19.209 -17.212   5.096
0.0441 17.942 -17.978   4.200
0.0441 17.993 -18.002   6.032
0.1301 19.683 -22.134   7.112
0.1301 21.785 -21.245   3.439
0.1301 21.435 -22.780   5.261
-0.0772 3.885 -26.757  -6.709
-0.1309 3.011 -27.100  -7.736
-0.1309 3.412 -26.067  -5.538
-0.0537 5.327 -26.983  -6.823
-0.1269 1.682 -26.782  -7.614
-0.1269 2.025 -25.925  -5.302
-0.1349 1.184 -26.181  -6.390
0.1301 3.267 -27.601  -8.605
0.1301 4.094 -25.703  -4.778
0.0441 5.541 -28.072  -6.820
0.0441 5.697 -26.512  -7.742
0.0441 5.893 -26.642  -6.006
0.1301 1.009 -27.019  -8.405
0.1301 1.684 -25.563  -4.344
0.1301 0.192 -25.906  -6.172
-0.0772 3.837 -19.127 -17.821
-0.1309 2.777 -18.603 -18.575
-0.1309 4.437 -18.284 -16.850
-0.0537 4.389 -20.518 -18.024
-0.1269 2.379 -17.308 -18.477
-0.1269 4.009 -16.960 -16.714
-0.1349 3.012 -16.503 -17.564
0.1301 2.422 -19.251 -19.330
0.1301 5.215 -18.603 -16.132
0.0441 3.658 -21.187 -18.565
0.0441 5.255 -20.411 -18.634
0.0441 4.688 -21.006 -17.119
0.1301 1.556 -16.965 -19.116
0.1301 4.499 -16.356 -15.922
0.1301 2.809 -15.412 -17.497
-0.0772 7.864   7.927  27.406
-0.1309 7.737   7.064  26.296
-0.1309 7.136   7.692  28.586
-0.0537 8.727   9.179  27.302
-0.1269 6.974   5.868  26.357
-0.1269 6.314   6.514  28.679
-0.1349 6.299   5.611  27.575
0.1301 8.253   7.348  25.383
0.1301 7.224   8.421  29.404
0.0441 8.007  10.056  27.316
0.0441 9.505   9.265  28.072
0.0441 9.298   9.174  26.299
0.1301 6.855   5.298  25.473
0.1301 5.811   6.269  29.546
0.1301 5.686   4.706  27.617
-0.0772 -19.909  -4.276   7.416
-0.1309 -19.893  -4.746   8.739
-0.1309 -19.902  -2.930   7.123
-0.0537 -20.029  -5.278   6.266
-0.1269 -19.721  -3.805   9.810
-0.1269 -19.678  -2.000   8.100
-0.1349 -19.562  -2.429   9.493
0.1301 -19.904  -5.792   8.901
0.1301 -19.940  -2.640   6.050
0.0441 -19.675  -6.248   6.545
0.0441 -21.097  -5.307   6.031
0.0441 -19.499  -4.956   5.370
0.1301 -19.602  -4.094  10.768
0.1301 -19.528  -1.020   7.701
0.1301 -19.358  -1.731  10.306
-0.0772 28.322  -1.907   5.334
-0.1309 28.082  -0.503   5.240
-0.1309 27.435  -2.818   4.727
-0.0537 29.436  -2.433   6.203
-0.1269 27.000  -0.113   4.461
-0.1269 26.361  -2.402   3.947
-0.1349 26.251  -1.012   3.732
0.1301 28.722   0.265   5.694
0.1301 27.516  -3.919   4.818
0.0441 29.860  -3.398   5.885
0.0441 30.366  -1.923   5.929
0.0441 29.275  -2.459   7.325
0.1301 26.766   0.937   4.392
0.1301 25.610  -3.174   3.549
0.1301 25.464  -0.681   3.073
-0.0772 28.424  -9.914  -2.341
-0.1309 27.360 -10.293  -1.564
-0.1309 29.626  -9.531  -1.701
-0.0537 28.235  -9.537  -3.777
-0.1269 27.571 -10.556  -0.215
-0.1269 29.872  -9.741  -0.331
-0.1349 28.776 -10.277   0.378
0.1301 26.430 -10.337  -2.046
0.1301 30.436  -9.149  -2.343
0.0441 27.713  -8.608  -3.836
0.0441 29.178  -9.311  -4.314
0.0441 27.711 -10.262  -4.336
0.1301 26.722 -10.770   0.384
0.1301 30.788  -9.421   0.147
0.1301 28.936 -10.420   1.462
-0.0772 21.593  -2.058   8.238
-0.1309 22.417  -3.181   8.430
-0.1309 21.954  -1.080   7.340
-0.0537 20.432  -1.786   9.144
-0.1269 23.504  -3.405   7.525
-0.1269 23.132  -1.181   6.493
-0.1349 23.793  -2.403   6.590
0.1301 22.172  -3.863   9.219
0.1301 21.275  -0.193   7.275
0.0441 19.511  -1.595   8.589
0.0441 20.363  -2.513   9.890
0.0441 20.610  -0.902   9.626
0.1301 24.158  -4.264   7.695
0.1301 23.453  -0.382   5.818
0.1301 24.623  -2.564   5.911
-0.0772 22.054   2.818  14.445
-0.1309 22.109   1.746  13.506
-0.1309 21.882   4.156  14.076
-0.0537 22.099   2.553  15.974
-0.1269 22.003   2.195  12.107
-0.1269 21.859   4.499  12.761
-0.1349 21.819   3.527  11.752
0.1301 22.342   0.720  13.711
0.1301 21.915   4.955  14.841
0.0441 22.142   3.446  16.553
0.0441 21.216   2.043  16.331
0.0441 22.911   1.853  16.318
0.1301 21.970   1.476  11.251
0.1301 21.816   5.558  12.604
0.1301 21.771   3.783  10.710
-0.0772 5.205   9.930  14.939
-0.1309 4.524   9.997  13.742
-0.1309 4.414   9.792  16.054
-0.0537 6.666   9.816  14.991
-0.1269 3.137  10.317  13.565
-0.1269 2.963   9.921  15.951
