1586

0.1301 -13.732  13.952   8.151
0.1301 -12.865  17.456   5.870
0.0441 -11.084  15.335   8.036
0.0441 -11.485  16.978   8.002
0.0441 -12.244  15.982   9.251
0.1301 -15.832  13.646   6.885
0.1301 -14.730  16.977   4.563
0.1301 -16.246  15.192   4.980
-0.0772 13.245   4.256  27.255
-0.1309 13.038   4.422  25.854
-0.1309 13.495   2.913  27.744
-0.0537 13.373   5.473  28.138
-0.1269 13.154   3.430  24.922
-0.1269 13.465   1.896  26.810
-0.1349 13.332   2.120  25.382
0.1301 12.898   5.459  25.559
0.1301 13.519   2.705  28.836
0.0441 13.439   5.298  29.174
0.0441 14.194   6.154  27.818
0.0441 12.392   6.049  28.086
0.1301 12.951   3.682  23.886
0.1301 13.722   0.926  27.192
0.1301 13.401   1.398  24.638
-0.0772 14.436   5.819  13.535
-0.1309 14.522   4.540  14.067
-0.1309 13.153   6.465  13.710
-0.0537 15.617   6.472  12.935
-0.1269 13.395   3.819  14.513
-0.1269 12.030   5.773  14.244
-0.1349 12.216   4.513  14.666
0.1301 15.428   3.948  13.928
0.1301 13.023   7.434  13.318
0.0441 16.371   6.737  13.705
0.0441 16.080   5.841  12.149
0.0441 15.393   7.320  12.267
0.1301 13.459   2.805  14.856
0.1301 11.058   6.270  14.359
0.1301 11.370   4.050  15.186
-0.0772 -9.311  -8.531 -12.046
-0.1309 -8.146  -9.165 -12.607
-0.1309 -9.776  -7.349 -12.598
-0.0537 -9.918  -9.110 -10.760
-0.1269 -7.591  -8.672 -13.809
-0.1269 -9.099  -6.842 -13.698
-0.1349 -8.052  -7.511 -14.275
0.1301 -7.770 -10.112 -12.192
0.1301 -10.672  -6.917 -12.181
0.0441 -10.390  -8.294 -10.174
0.0441 -10.673  -9.865 -10.828
0.0441 -9.151  -9.538 -10.080
0.1301 -6.695  -9.114 -14.279
0.1301 -9.473  -5.855 -14.113
0.1301 -7.411  -6.962 -15.029
-0.0772 23.459   7.960  14.540
-0.1309 22.962   8.782  13.519
-0.1309 23.480   8.500  15.809
-0.0537 23.979   6.560  14.361
-0.1269 22.544  10.113  13.701
-0.1269 22.898   9.762  16.087
-0.1349 22.524  10.603  15.023
0.1301 22.976   8.392  12.503
0.1301 23.831   7.941  16.675
0.0441 24.596   6.213  15.218
0.0441 23.166   5.854  14.165
0.0441 24.645   6.445  13.487
0.1301 22.305  10.768  12.770
0.1301 22.800  10.055  17.153
0.1301 22.137  11.635  15.192
-0.0772 13.667  22.660  14.486
-0.1309 13.054  21.880  15.457
-0.1309 14.271  22.015  13.398
-0.0537 13.521  24.159  14.462
-0.1269 13.118  20.454  15.333
-0.1269 14.380  20.619  13.268
-0.1349 13.788  19.836  14.294
0.1301 12.569  22.462  16.286
0.1301 14.615  22.652  12.555
0.0441 14.214  24.498  13.748
0.0441 13.735  24.665  15.402
0.0441 12.593  24.544  14.128
0.1301 12.809  19.923  16.211
0.1301 14.741  20.102  12.328
0.1301 13.756  18.731  14.269
-0.0772 20.201  12.339   7.260
-0.1309 19.069  11.647   7.768
-0.1309 20.671  13.534   7.868
-0.0537 20.889  11.550   6.183
-0.1269 18.361  12.242   8.849
-0.1269 20.011  14.036   8.922
-0.1349 18.820  13.405   9.409
0.1301 18.867  10.524   7.486
0.1301 21.639  13.982   7.574
0.0441 21.858  12.075   5.863
0.0441 21.263  10.581   6.572
0.0441 20.297  11.460   5.311
0.1301 17.432  11.784   9.138
0.1301 20.371  14.886   9.439
0.1301 18.339  13.874  10.299
-0.0772 24.327  -6.335  -3.711
-0.1309 24.861  -7.460  -4.410
-0.1309 23.576  -5.406  -4.425
-0.0537 24.711  -6.130  -2.230
-0.1269 24.638  -7.606  -5.789
-0.1269 23.298  -5.555  -5.771
-0.1349 23.853  -6.717  -6.460
0.1301 25.446  -8.211  -3.863
0.1301 23.172  -4.614  -3.853
0.0441 23.805  -6.265  -1.636
0.0441 25.496  -6.868  -1.920
0.0441 25.073  -5.145  -1.995
0.1301 25.201  -8.341  -6.405
0.1301 22.772  -4.739  -6.244
0.1301 23.698  -6.764  -7.531
-0.0772 -13.703  21.179  16.896
-0.1309 -14.342  21.210  15.659
-0.1309 -12.822  20.117  17.208
-0.0537 -14.151  22.066  18.088
-0.1269 -14.032  20.239  14.700
-0.1269 -12.590  19.065  16.300
-0.1349 -13.147  19.173  15.039
0.1301 -15.036  21.996  15.409
0.1301 -12.363  19.940  18.248
0.0441 -14.162  21.612  19.023
0.0441 -13.452  22.868  18.205
0.0441 -15.070  22.560  17.947
0.1301 -14.376  20.445  13.712
0.1301 -12.000  18.195  16.588
0.1301 -12.915  18.445  14.261
-0.0772 22.324  12.552  -6.910
-0.1309 21.385  11.703  -6.409
-0.1309 23.504  12.958  -6.177
-0.0537 22.313  12.963  -8.401
-0.1269 21.538  11.355  -5.049
-0.1269 23.690  12.602  -4.905
-0.1349 22.735  11.763  -4.349
0.1301 20.578  11.207  -7.033
0.1301 24.227  13.605  -6.675
0.0441 22.421  12.092  -9.001
0.0441 21.473  13.562  -8.647
0.0441 23.164  13.650  -8.664
0.1301 20.796  10.645  -4.628
0.1301 24.587  12.904  -4.417
0.1301 22.897  11.426  -3.300
-0.0772 18.883 -15.167  12.721
-0.1309 19.622 -14.217  13.539
-0.1309 17.731 -14.670  11.963
-0.0537 19.092 -16.643  12.758
-0.1269 19.265 -12.866  13.505
-0.1269 17.439 -13.262  11.873
-0.1349 18.227 -12.395  12.684
0.1301 20.407 -14.563  14.125
0.1301 17.134 -15.446  11.411
0.0441 18.737 -17.057  13.684
0.0441 18.497 -17.064  11.919
0.0441 20.220 -16.878  12.672
0.1301 19.776 -12.134  14.081
0.1301 16.615 -12.918  11.261
0.1301 17.976 -11.343  12.671
-0.0772 19.057  10.688   1.239
-0.1309 19.021  11.310  -0.036
-0.1309 19.813   9.506   1.424
-0.0537 18.412  11.225   2.497
-0.1269 19.733  10.643  -1.102
-0.1269 20.497   8.869   0.389
-0.1349 20.456   9.457  -0.887
0.1301 18.432  12.263  -0.143
0.1301 19.860   8.993   2.409
0.0441 17.781  10.407   2.880
0.0441 19.014  11.711   3.231
0.0441 17.630  12.033   2.190
0.1301 19.719  11.049  -2.091
0.1301 20.995   7.933   0.564
0.1301 20.961   9.012  -1.740
-0.0772 2.376  26.974  -2.187
-0.1309 1.505  27.489  -1.185
-0.1309 2.087  25.735  -2.756
-0.0537 3.608  27.742  -2.506
-0.1269 0.389  26.784  -0.789
-0.1269 0.912  25.000  -2.423
-0.1349 0.089  25.574  -1.406
0.1301 1.718  28.507  -0.824
0.1301 2.692  25.453  -3.578
0.0441 4.545  27.143  -2.367
0.0441 3.534  28.152  -3.527
0.0441 3.732  28.630  -1.876
0.1301 -0.196  27.108   0.041
0.1301 0.651  24.049  -2.803
0.1301 -0.802  25.053  -1.143
-0.0772 20.918  19.204   6.909
-0.1309 21.489  19.968   7.979
-0.1309 20.221  19.916   5.920
-0.0537 21.112  17.767   6.884
-0.1269 21.383  21.403   8.042
-0.1269 20.104  21.290   5.975
-0.1349 20.704  22.056   6.974
0.1301 22.031  19.398   8.751
0.1301 19.644  19.515   5.119
0.0441 21.625  17.440   6.044
0.0441 21.665  17.338   7.676
0.0441 20.161  17.229   6.775
0.1301 21.757  21.949   8.835
0.1301 19.605  21.870   5.176
0.1301 20.746  23.127   7.005
-0.0772 8.027  -5.568 -18.975
-0.1309 7.102  -6.568 -19.322
-0.1309 8.084  -5.232 -17.628
-0.0537 8.891  -4.762 -20.030
-0.1269 6.306  -7.145 -18.356
-0.1269 7.242  -5.729 -16.669
-0.1349 6.325  -6.736 -17.027
0.1301 7.065  -6.954 -20.306
0.1301 8.708  -4.384 -17.350
0.0441 8.917  -3.667 -19.861
0.0441 9.922  -5.133 -20.161
0.0441 8.539  -4.910 -21.078
0.1301 5.623  -8.001 -18.653
0.1301 7.241  -5.383 -15.626
0.1301 5.651  -7.073 -16.284
-0.0772 6.852  -9.911 -12.797
-0.1309 5.527 -10.181 -12.349
-0.1309 7.924  -9.979 -11.864
-0.0537 7.085  -9.470 -14.228
-0.1269 5.270 -10.473 -11.050
-0.1269 7.594 -10.115 -10.443
-0.1349 6.244 -10.369 -10.074
0.1301 4.653 -10.203 -13.004
0.1301 8.939  -9.713 -12.073
0.0441 7.253  -8.417 -14.197
0.0441 7.956  -9.895 -14.706
0.0441 6.234  -9.685 -14.878
0.1301 4.225 -10.628 -10.792
0.1301 8.353 -10.093  -9.721
0.1301 5.918 -10.394  -8.983
-0.0772 27.171   0.763  -0.177
-0.1309 25.892   1.303  -0.335
-0.1309 27.917   1.165   0.934
-0.0537 27.798  -0.297  -1.052
-0.1269 25.402   2.260   0.574
-0.1269 27.404   2.117   1.843
-0.1349 26.149   2.713   1.600
0.1301 25.349   0.975  -1.200
0.1301 28.876   0.665   1.069
0.0441 28.865  -0.496  -0.732
0.0441 27.215  -1.206  -0.864
0.0441 27.798  -0.029  -2.095
0.1301 24.444   2.777   0.349
0.1301 27.999   2.472   2.688
0.1301 25.885   3.438   2.351
-0.0772 -4.355  29.377  10.125
-0.1309 -5.320  28.344   9.954
-0.1309 -3.498  29.664   9.045
-0.0537 -4.086  29.976  11.487
-0.1269 -5.550  27.776   8.702
-0.1269 -3.794  29.079   7.779
-0.1349 -4.825  28.210   7.608
0.1301 -5.951  28.162  10.812
0.1301 -2.628  30.288   9.233
0.0441 -5.010  29.994  12.124
0.0441 -3.338  29.449  12.117
0.0441 -3.779  31.017  11.472
0.1301 -6.342  27.050   8.626
0.1301 -3.182  29.351   6.924
0.1301 -5.085  27.791   6.697
-0.0772 8.188  16.155   4.826
-0.1309 9.263  15.250   4.889
-0.1309 7.736  16.847   5.974
-0.0537 7.580  16.513   3.460
-0.1269 9.898  15.020   6.133
-0.1269 8.347  16.500   7.196
-0.1349 9.367  15.563   7.256
0.1301 9.616  14.717   3.986
0.1301 7.047  17.642   5.789
0.0441 8.286  16.995   2.761
0.0441 7.375  15.564   2.982
0.0441 6.656  17.032   3.591
0.1301 10.532  14.150   6.167
0.1301 7.894  16.867   8.075
0.1301 9.772  15.286   8.201
-0.0772 3.160 -13.283 -16.453
-0.1309 4.401 -13.019 -15.783
-0.1309 2.792 -12.631 -17.601
-0.0537 2.338 -14.435 -15.901
-0.1269 5.190 -12.060 -16.361
-0.1269 3.655 -11.842 -18.292
-0.1349 4.830 -11.544 -17.644
0.1301 4.797 -13.662 -15.012
0.1301 1.836 -12.940 -18.101
0.0441 2.321 -14.535 -14.787
0.0441 1.294 -14.368 -16.239
0.0441 2.763 -15.349 -16.287
0.1301 6.147 -11.782 -15.863
0.1301 3.339 -11.465 -19.223
0.1301 5.534 -10.786 -18.158
-0.0772 -8.581   8.578  18.008
-0.1309 -8.221   9.131  19.262
-0.1309 -9.021   7.254  17.968
-0.0537 -8.506   9.326  16.687
-0.1269 -8.275   8.378  20.399
-0.1269 -9.032   6.398  19.140
-0.1349 -8.795   7.019  20.361
0.1301 -7.713  10.146  19.271
0.1301 -9.200   6.797  16.978
0.0441 -9.400   9.145  16.100
0.0441 -8.516  10.439  16.802
0.0441 -7.674   9.055  16.024
0.1301 -7.921   8.755  21.378
0.1301 -9.401   5.366  19.049
0.1301 -8.873   6.451  21.284
-0.0772 12.417 -12.521  14.339
-0.1309 12.212 -11.816  15.537
-0.1309 11.483 -12.311  13.268
-0.0537 13.661 -13.325  14.157
-0.1269 11.007 -11.113  15.848
-0.1269 10.203 -11.742  13.638
-0.1349 9.980 -11.100  14.937
0.1301 12.959 -11.823  16.248
0.1301 11.611 -12.861  12.350
0.0441 14.119 -13.516  15.191
0.0441 13.535 -14.297  13.633
0.0441 14.426 -12.745  13.603
0.1301 10.982 -10.588  16.845
0.1301 9.489 -11.723  12.879
0.1301 8.949 -10.654  15.101
-0.0772 4.576  23.439  10.421
-0.1309 4.334  24.292   9.321
-0.1309 4.676  23.974  11.712
-0.0537 4.615  21.940  10.216
-0.1269 4.170  25.663   9.551
-0.1269 4.692  25.325  11.891
-0.1349 4.288  26.134  10.844
0.1301 4.272  23.934   8.297
0.1301 4.806  23.247  12.539
0.0441 4.459  21.699   9.125
0.0441 5.605  21.491  10.358
0.0441 3.803  21.387  10.680
0.1301 3.844  26.334   8.740
0.1301 4.981  25.798  12.864
0.1301 4.380  27.166  10.936
-0.0772 -8.954  -8.302  20.685
-0.1309 -9.365  -7.198  21.422
-0.1309 -9.086  -9.583  21.296
-0.0537 -8.298  -8.188  19.374
-0.1269 -9.724  -7.379  22.788
-0.1269 -9.549  -9.783  22.580
-0.1349 -9.880  -8.661  23.368
0.1301 -9.323  -6.273  21.024
0.1301 -8.745 -10.377  20.610
0.0441 -7.252  -8.374  19.398
0.0441 -8.849  -8.862  18.717
0.0441 -8.345  -7.194  18.970
0.1301 -10.022  -6.565  23.387
0.1301 -9.492 -10.717  23.095
0.1301 -10.395  -8.781  24.296
-0.0772 2.981   1.869  30.976
-0.1309 3.909   1.007  30.470
-0.1309 3.259   3.252  30.852
-0.0537 1.698   1.352  31.761
-0.1269 5.197   1.451  30.043
-0.1269 4.471   3.692  30.282
-0.1349 5.458   2.785  29.925
0.1301 3.720  -0.072  30.659
0.1301 2.560   4.026  31.216
0.0441 1.550   2.013  32.562
0.0441 0.793   1.268  31.090
0.0441 1.927   0.326  32.235
0.1301 5.991   0.757  29.790
0.1301 4.820   4.741  30.155
0.1301 6.344   3.184  29.451
-0.0772 18.635   7.912  11.308
-0.1309 18.348   6.692  10.642
-0.1309 17.807   9.006  11.013
-0.0537 19.565   7.898  12.507
-0.1269 17.386   6.584   9.631
-0.1269 16.796   8.938  10.009
-0.1349 16.627   7.706   9.366
0.1301 18.715   5.691  11.048
0.1301 17.898   9.945  11.555
0.0441 19.525   8.829  13.022
0.0441 19.425   7.031  13.169
0.0441 20.576   7.754  12.069
0.1301 17.167   5.627   9.153
0.1301 16.073   9.734   9.840
0.1301 15.850   7.717   8.624
-0.0772 0.918  12.604   4.438
-0.1309 2.162  12.007   4.226
-0.1309 0.372  13.258   3.344
-0.0537 0.115  12.365   5.696
-0.1269 2.894  12.191   3.095
-0.1269 1.112  13.424   2.151
-0.1349 2.342  12.874   2.052
0.1301 2.572  11.548   5.099
0.1301 -0.599  13.679   3.360
0.0441 -0.879  12.054   5.451
0.0441 0.583  11.549   6.254
0.0441 0.068  13.280   6.269
0.1301 3.940  11.925   3.099
0.1301 0.801  13.890   1.208
0.1301 2.981  13.019   1.152
-0.0772 16.972  -0.030  10.407
-0.1309 16.881   0.001   9.035
-0.1309 17.604   1.030  11.055
-0.0537 16.365  -1.247  11.074
-0.1269 17.462   1.014   8.335
-0.1269 18.295   2.040  10.326
-0.1349 18.284   2.022   8.939
0.1301 16.399  -0.829   8.456
0.1301 17.696   1.060  12.113
0.0441 15.297  -1.302  10.887
0.0441 16.841  -2.096  10.660
0.0441 16.482  -1.272  12.194
0.1301 17.360   1.039   7.230
0.1301 18.626   2.868  10.831
0.1301 18.673   2.934   8.370
-0.0772 7.707  14.585  15.919
-0.1309 6.791  14.269  14.873
-0.1309 7.329  15.620  16.855
-0.0537 9.035  13.785  16.056
-0.1269 5.679  15.081  14.638
-0.1269 6.133  16.364  16.662
-0.1349 5.353  16.085  15.579
0.1301 7.043  13.576  14.050
0.1301 8.036  15.860  17.638
0.0441 8.830  12.975  16.786
0.0441 9.501  13.292  15.178
0.0441 9.783  14.437  16.501
0.1301 5.049  14.826  13.814
0.1301 5.825  17.187  17.341
0.1301 4.414  16.645  15.500
-0.0772 8.942  21.629 -12.152
-0.1309 10.079  21.741 -12.976
-0.1309 7.696  21.099 -12.586
-0.0537 9.096  22.200 -10.792
-0.1269 9.897  21.357 -14.278
-0.1269 7.610  20.650 -13.920
-0.1349 8.684  20.804 -14.738
0.1301 10.995  22.155 -12.528
0.1301 6.912  20.993 -11.884
0.0441 10.019  21.801 -10.266
0.0441 9.132  23.330 -10.869
0.0441 8.265  21.974 -10.169
0.1301 10.714  21.604 -14.919
0.1301 6.724  20.196 -14.300
0.1301 8.614  20.461 -15.736
-0.0772 5.908  26.877   5.084
-0.1309 6.781  27.910   5.562
-0.1309 6.053  25.578   5.712
-0.0537 4.612  27.171   4.349
-0.1269 7.931  27.604   6.302
-0.1269 7.149  25.283   6.536
-0.1349 8.107  26.347   6.785
0.1301 6.686  28.919   5.197
0.1301 5.322  24.846   5.463
0.0441 4.326  28.249   4.459
0.0441 4.841  26.988   3.286
0.0441 3.725  26.635   4.666
0.1301 8.652  28.442   6.594
0.1301 7.292  24.318   6.991
0.1301 9.016  26.148   7.379
-0.0772 1.906  15.520 -16.016
-0.1309 1.328  15.350 -17.276
-0.1309 1.107  16.075 -15.027
-0.0537 3.407  15.239 -15.752
-0.1269 0.036  15.837 -17.592
-0.1269 -0.182  16.611 -15.369
-0.1349 -0.765  16.462 -16.622
0.1301 1.911  14.825 -18.049
0.1301 1.438  16.209 -13.943
0.0441 4.006  15.614 -16.556
0.0441 3.766  15.702 -14.855
0.0441 3.531  14.187 -15.535
0.1301 -0.329  15.862 -18.635
0.1301 -0.747  17.063 -14.548
0.1301 -1.707  16.888 -17.001
-0.0772 1.319  19.617 -19.824
-0.1309 1.874  18.702 -18.922
-0.1309 1.020  20.900 -19.378
-0.0537 0.799  19.240 -21.203
-0.1269 2.200  19.037 -17.587
-0.1269 1.334  21.240 -18.055
-0.1349 1.962  20.323 -17.172
0.1301 1.975  17.626 -19.187
0.1301 0.504  21.653 -19.966
0.0441 1.656  18.792 -21.671
0.0441 0.046  18.420 -21.104
0.0441 0.331  20.049 -21.770
0.1301 2.661  18.305 -16.938
0.1301 1.021  22.226 -17.659
0.1301 2.054  20.521 -16.097
-0.0772 24.667   7.077 -15.648
-0.1309 24.174   6.151 -14.709
-0.1309 25.391   8.160 -15.194
-0.0537 24.515   6.755 -17.141
-0.1269 24.369   6.367 -13.357
-0.1269 25.612   8.403 -13.811
-0.1349 25.139   7.431 -12.875
0.1301 23.563   5.316 -15.085
0.1301 25.754   8.856 -15.945
0.0441 23.513   6.951 -17.397
0.0441 25.132   7.434 -17.754
0.0441 24.769   5.728 -17.417
0.1301 23.913   5.658 -12.761
0.1301 26.204   9.263 -13.560
0.1301 25.405   7.512 -11.808
-0.0772 12.537   7.491 -12.163
-0.1309 11.613   6.479 -11.954
-0.1309 13.706   7.545 -11.338
-0.0537 12.354   8.551 -13.246
-0.1269 11.778   5.496 -10.964
-0.1269 13.836   6.593 -10.300
-0.1349 12.917   5.570 -10.135
0.1301 10.792   6.343 -12.671
0.1301 14.480   8.315 -11.570
0.0441 13.074   9.346 -13.192
0.0441 12.431   8.146 -14.309
0.0441 11.348   8.895 -13.174
0.1301 11.217   4.613 -10.911
0.1301 14.735   6.626  -9.668
0.1301 13.115   4.811  -9.432
-0.0772 15.844  -4.197   9.046
-0.1309 17.111  -4.398   8.377
-0.1309 14.833  -3.585   8.383
-0.0537 15.633  -4.848  10.388
-0.1269 17.234  -3.900   7.066
-0.1269 14.987  -3.043   7.055
-0.1349 16.189  -3.252   6.385
0.1301 17.951  -4.955   8.729
0.1301 13.837  -3.528   8.802
0.0441 14.687  -4.567  10.925
0.0441 15.737  -5.955  10.306
0.0441 16.446  -4.540  11.048
0.1301 18.241  -3.937   6.569
0.1301 14.127  -2.541   6.557
0.1301 16.376  -2.975   5.395
-0.0772 4.832  23.538  -4.137
-0.1309 3.790  22.914  -4.806
-0.1309 5.979  23.796  -4.809
-0.0537 4.770  23.774  -2.625
-0.1269 3.897  22.459  -6.115
-0.1269 6.031  23.573  -6.225
-0.1349 4.994  22.938  -6.860
0.1301 2.891  22.698  -4.283
0.1301 6.813  24.276  -4.438
0.0441 4.901  24.819  -2.412
0.0441 3.828  23.439  -2.093
0.0441 5.558  23.226  -2.119
0.1301 3.008  22.052  -6.579
0.1301 6.848  23.946  -6.834
0.1301 5.021  22.656  -7.894
-0.0772 -0.226  19.130 -10.479
-0.1309 -1.180  18.674  -9.547
-0.1309 0.644  20.168 -10.124
-0.0537 -0.120  18.366 -11.775
-0.1269 -1.337  19.250  -8.269
-0.1269 0.476  20.837  -8.864
-0.1349 -0.478  20.356  -7.932
0.1301 -1.917  17.854  -9.878
0.1301 1.401  20.532 -10.935
0.0441 -1.041  17.792 -11.831
0.0441 -0.062  18.970 -12.706
0.0441 0.762  17.742 -11.788
0.1301 -2.130  18.910  -7.528
0.1301 1.096  21.733  -8.670
0.1301 -0.697  21.019  -7.047
-0.0772 -0.854  13.413 -12.808
-0.1309 -1.954  12.770 -12.138
-0.1309 -0.570  13.033 -14.150
-0.0537 -0.065  14.437 -12.015
-0.1269 -2.703  11.764 -12.785
-0.1269 -1.301  12.058 -14.809
-0.1349 -2.383  11.532 -14.122
0.1301 -2.150  13.090 -11.132
0.1301 0.194  13.475 -14.663
0.0441 -0.730  15.367 -11.962
0.0441 0.118  14.104 -10.925
0.0441 0.860  14.675 -12.531
0.1301 -3.577  11.431 -12.245
0.1301 -1.172  11.863 -15.812
0.1301 -2.971  10.810 -14.669
-0.0772 -25.615  -4.088   0.819
-0.1309 -26.260  -3.791  -0.397
-0.1309 -24.276  -3.583   1.094
-0.0537 -26.191  -5.124   1.690
-0.1269 -25.702  -2.840  -1.255
-0.1269 -23.714  -2.643   0.178
-0.1349 -24.469  -2.258  -1.004
0.1301 -27.195  -4.264  -0.645
0.1301 -23.736  -3.920   2.059
0.0441 -25.464  -5.995   1.735
0.0441 -26.550  -5.005   2.737
0.0441 -27.084  -5.646   1.221
0.1301 -26.087  -2.645  -2.245
0.1301 -22.724  -2.289   0.403
0.1301 -24.046  -1.615  -1.703
-0.0772 5.939   3.743  -2.872
-0.1309 6.909   4.617  -3.424
-0.1309 5.083   3.042  -3.715
-0.0537 5.796   3.557  -1.340
-0.1269 6.942   4.766  -4.818
-0.1269 5.108   3.250  -5.096
-0.1349 6.008   4.081  -5.661
0.1301 7.695   5.202  -2.905
0.1301 4.409   2.379  -3.332
0.0441 6.773   3.550  -0.829
0.0441 5.274   4.524  -1.025
0.0441 5.325   2.614  -1.109
0.1301 7.659   5.401  -5.313
0.1301 4.390   2.678  -5.630
0.1301 6.016   4.179  -6.727
-0.0772 7.471  26.514  -0.333
-0.1309 7.830  26.622  -1.671
-0.1309 7.996  25.489   0.458
-0.0537 6.705  27.657   0.416
-0.1269 8.518  25.580  -2.276
-0.1269 8.708  24.384  -0.157
-0.1349 8.861  24.391  -1.527
0.1301 7.519  27.490  -2.218
0.1301 7.787  25.587   1.513
0.0441 6.258  28.312  -0.359
0.0441 5.877  27.325   1.009
0.0441 7.482  28.151   1.020
0.1301 8.823  25.658  -3.305
0.1301 9.008  23.601   0.517
0.1301 9.394  23.590  -2.093
-0.0772 9.458  21.501  -5.068
-0.1309 8.163  21.173  -4.702
-0.1309 10.411  21.491  -4.077
-0.0537 9.844  21.830  -6.526
-0.1269 7.791  20.877  -3.410
-0.1269 10.097  21.138  -2.751
-0.1349 8.750  20.832  -2.391
0.1301 7.394  21.171  -5.466
0.1301 11.460  21.731  -4.281
0.0441 10.170  22.896  -6.723
0.0441 10.761  21.298  -6.841
0.0441 9.011  21.728  -7.190
0.1301 6.721  20.635  -3.222
0.1301 10.919  20.903  -2.070
0.1301 8.413  20.585  -1.428
-0.0772 -0.900   6.404 -27.809
-0.1309 -1.777   6.649 -28.847
-0.1309 0.076   7.420 -27.521
-0.0537 -0.744   5.068 -27.181
-0.1269 -1.711   7.816 -29.608
-0.1269 0.174   8.567 -28.243
-0.1349 -0.717   8.808 -29.301
0.1301 -2.452   5.878 -29.231
0.1301 0.829   7.164 -26.764
0.0441 0.311   4.860 -27.118
0.0441 -1.295   5.089 -26.244
0.0441 -1.227   4.335 -27.844
0.1301 -2.297   7.904 -30.506
0.1301 1.054   9.183 -28.012
0.1301 -0.629   9.661 -29.963
-0.0772 -1.587  23.255  -5.893
-0.1309 -2.291  23.708  -7.033
-0.1309 -0.205  23.294  -5.879
-0.0537 -2.303  22.773  -4.691
-0.1269 -1.580  24.267  -8.130
-0.1269 0.521  23.736  -7.062
-0.1349 -0.176  24.225  -8.132
0.1301 -3.419  23.602  -7.033
0.1301 0.295  22.864  -5.017
0.0441 -1.668  22.015  -4.192
0.0441 -2.471  23.609  -4.063
0.0441 -3.166  22.287  -5.019
0.1301 -2.002  24.704  -9.027
0.1301 1.583  23.756  -7.069
0.1301 0.343  24.627  -9.014
-0.0772 27.851   5.363   0.388
-0.1309 26.752   5.569  -0.503
-0.1309 28.847   4.423   0.046
-0.0537 28.002   6.012   1.731
-0.1269 26.812   5.026  -1.747
-0.1269 28.811   3.815  -1.194
-0.1349 27.836   4.126  -2.186
0.1301 25.874   6.008  -0.160
0.1301 29.738   4.187   0.670
0.0441 27.942   5.164   2.489
0.0441 28.921   6.640   1.767
0.0441 27.143   6.777   1.950
0.1301 26.019   5.139  -2.458
0.1301 29.600   3.221  -1.521
0.1301 27.869   3.634  -3.133
-0.0772 15.837  15.786 -12.837
-0.1309 16.319  16.665 -13.774
-0.1309 16.720  14.842 -12.297
-0.0537 14.451  15.894 -12.392
-0.1269 17.617  16.552 -14.331
-0.1269 17.974  14.651 -12.812
-0.1349 18.389  15.544 -13.798
0.1301 15.634  17.425 -14.198
0.1301 16.365  14.184 -11.524
0.0441 14.340  15.982 -11.294
0.0441 13.874  16.728 -12.857
0.0441 13.855  15.052 -12.639
0.1301 17.933  17.186 -15.120
0.1301 18.698  13.959 -12.457
0.1301 19.365  15.286 -14.260
-0.0772 3.967   8.221  -4.560
-0.1309 3.830   9.559  -4.193
-0.1309 3.505   7.790  -5.815
-0.0537 4.502   7.131  -3.613
-0.1269 3.130  10.471  -4.945
-0.1269 2.742   8.742  -6.595
-0.1349 2.567  10.048  -6.147
0.1301 4.272   9.921  -3.286
0.1301 3.629   6.816  -6.263
0.0441 5.265   6.609  -4.022
0.0441 4.775   7.540  -2.652
0.0441 3.704   6.441  -3.413
0.1301 3.114  11.487  -4.700
0.1301 2.475   8.571  -7.615
0.1301 2.044  10.753  -6.809
-0.0772 17.932  -7.734  -7.206
-0.1309 16.921  -6.785  -7.024
-0.1309 18.480  -8.343  -6.070
-0.0537 18.366  -8.179  -8.619
-0.1269 16.407  -6.488  -5.734
-0.1269 18.033  -7.950  -4.792
-0.1349 17.033  -7.037  -4.600
0.1301 16.484  -6.336  -7.908
0.1301 19.162  -9.152  -6.047
0.0441 18.599  -7.354  -9.305
0.0441 19.183  -8.878  -8.414
0.0441 17.583  -8.751  -9.064
0.1301 15.519  -5.855  -5.590
0.1301 18.504  -8.316  -3.871
0.1301 16.635  -6.886  -3.595
-0.0772 -12.242  -5.021  25.785
-0.1309 -13.232  -4.778  24.885
-0.1309 -11.116  -4.249  25.781
-0.0537 -12.384  -6.079  26.865
-0.1269 -13.138  -3.757  23.944
-0.1269 -10.936  -3.217  24.803
-0.1349 -11.957  -2.990  23.846
0.1301 -14.247  -5.089  24.985
0.1301 -10.293  -4.424  26.436
0.0441 -13.412  -6.180  26.895
0.0441 -11.852  -7.019  26.613
0.0441 -11.992  -5.751  27.802
0.1301 -13.996  -3.513  23.317
0.1301 -10.062  -2.559  24.813
0.1301 -11.789  -2.192  23.142
-0.0772 -4.667  21.843   1.751
-0.1309 -3.386  21.611   1.206
-0.1309 -4.913  22.003   3.132
-0.0537 -5.841  22.169   0.817
-0.1269 -2.366  21.359   2.155
-0.1269 -3.851  21.667   4.030
-0.1349 -2.588  21.348   3.536
0.1301 -3.187  21.614   0.128
0.1301 -5.931  22.274   3.491
0.0441 -6.608  21.455   0.719
0.0441 -6.382  23.099   1.114
0.0441 -5.423  22.461  -0.217
0.1301 -1.440  20.888   1.764
0.1301 -4.019  21.524   5.117
0.1301 -1.785  21.045   4.241
-0.0772 -8.614   8.382   5.131
-0.1309 -9.445   9.500   5.204
-0.1309 -7.525   8.303   6.055
-0.0537 -8.694   7.362   3.975
-0.1269 -9.231  10.555   6.069
-0.1269 -7.362   9.206   7.064
-0.1349 -8.180  10.361   6.995
0.1301 -10.251   9.679   4.573
0.1301 -6.741   7.453   5.987
0.0441 -8.478   7.784   2.947
0.0441 -8.090   6.457   4.223
0.0441 -9.727   6.952   3.955
0.1301 -9.910  11.443   6.042
0.1301 -6.574   9.121   7.796
0.1301 -8.196  11.202   7.727
-0.0772 13.537  25.182  -4.397
-0.1309 14.077  24.648  -3.197
-0.1309 13.528  24.375  -5.525
-0.0537 13.145  26.586  -4.596
-0.1269 14.681  23.373  -3.138
-0.1269 14.072  23.069  -5.484
-0.1349 14.677  22.543  -4.288
0.1301 14.150  25.283  -2.311
0.1301 13.096  24.762  -6.470
0.0441 13.940  27.284  -4.393
0.0441 13.011  26.841  -5.652
0.0441 12.218  26.842  -4.054
0.1301 15.137  23.114  -2.162
0.1301 14.035  22.435  -6.396
0.1301 15.146  21.583  -4.245
-0.0772 23.225  17.554  -4.555
-0.1309 23.160  16.169  -4.153
-0.1309 23.718  18.440  -3.593
-0.0537 23.100  17.942  -5.988
-0.1269 23.275  15.808  -2.813
-0.1269 23.951  17.978  -2.274
-0.1349 23.692  16.683  -1.842
0.1301 22.866  15.379  -4.862
0.1301 23.947  19.478  -3.740
0.0441 23.825  18.679  -6.403
0.0441 23.257  17.146  -6.650
0.0441 22.107  18.342  -6.147
0.1301 23.278  14.751  -2.551
0.1301 24.424  18.665  -1.584
0.1301 23.960  16.339  -0.893
-0.0772 -4.385   2.389 -29.086
-0.1309 -3.240   1.869 -28.468
-0.1309 -5.096   3.442 -28.413
-0.0537 -4.599   1.948 -30.511
-0.1269 -2.969   2.240 -27.130
-0.1269 -4.786   3.809 -27.043
-0.1349 -3.769   3.133 -26.385
0.1301 -2.659   1.111 -29.011
0.1301 -5.930   3.946 -28.899
0.0441 -3.640   2.196 -31.024
0.0441 -5.020   0.897 -30.681
0.0441 -5.207   2.730 -30.986
0.1301 -2.146   1.728 -26.599
0.1301 -5.284   4.645 -26.500
0.1301 -3.487   3.334 -25.323
-0.0772 2.198  23.345   2.517
-0.1309 2.138  24.218   1.397
-0.1309 3.391  22.980   3.048
-0.0537 0.912  22.833   3.179
-0.1269 3.402  24.702   0.869
-0.1269 4.643  23.276   2.403
-0.1349 4.584  24.194   1.368
0.1301 1.206  24.429   0.913
0.1301 3.486  22.384   3.933
0.0441 0.168  22.706   2.380
0.0441 1.081  21.859   3.710
0.0441 0.632  23.574   3.887
0.1301 3.410  25.380   0.090
0.1301 5.656  22.903   2.737
0.1301 5.451  24.576   0.909
-0.0772 22.384  11.852 -16.055
-0.1309 22.605  10.844 -15.089
-0.1309 21.045  12.346 -16.206
-0.0537 23.585  12.305 -16.945
-0.1269 21.537  10.316 -14.347
-0.1269 19.993  11.803 -15.446
-0.1349 20.227  10.736 -14.584
0.1301 23.598  10.434 -14.939
0.1301 20.866  12.939 -17.076
0.0441 24.532  12.040 -16.573
0.0441 23.437  11.898 -17.881
0.0441 23.595  13.416 -17.052
0.1301 21.777   9.460 -13.681
0.1301 18.911  12.078 -15.694
0.1301 19.418  10.344 -13.863
-0.0772 -11.149  14.757 -20.452
-0.1309 -9.765  14.840 -20.304
-0.1309 -11.856  13.940 -19.557
-0.0537 -11.817  15.293 -21.705
-0.1269 -9.081  14.180 -19.230
-0.1269 -11.211  13.378 -18.422
-0.1349 -9.841  13.528 -18.271
0.1301 -9.121  15.389 -20.969
0.1301 -12.920  13.740 -19.784
0.0441 -12.507  16.097 -21.286
0.0441 -10.962  15.708 -22.301
0.0441 -12.321  14.535 -22.194
0.1301 -7.993  14.332 -19.096
0.1301 -11.721  12.720 -17.834
0.1301 -9.386  13.121 -17.349
-0.0772 15.646   6.352 -23.193
-0.1309 14.503   5.546 -23.640
-0.1309 16.089   6.436 -21.822
-0.0537 16.510   7.115 -24.195
-0.1269 13.796   4.833 -22.621
-0.1269 15.485   5.631 -20.920
-0.1349 14.325   4.931 -21.264
0.1301 14.124   5.522 -24.670
0.1301 16.940   7.041 -21.539
0.0441 16.912   6.514 -25.065
0.0441 16.159   8.122 -24.588
0.0441 17.495   7.324 -23.694
0.1301 13.016   4.120 -22.849
0.1301 15.791   5.666 -19.890
0.1301 13.761   4.291 -20.564
-0.0772 -15.405  21.519   9.448
-0.1309 -14.605  20.558  10.010
-0.1309 -16.272  21.253   8.360
-0.0537 -15.527  22.911  10.095
-0.1269 -14.752  19.241   9.579
-0.1269 -16.312  19.941   7.870
-0.1349 -15.483  18.920   8.445
0.1301 -14.110  20.816  10.891
0.1301 -16.834  22.026   7.851
0.0441 -16.319  23.502   9.774
0.0441 -15.627  22.723  11.138
0.0441 -14.613  23.419   9.886
0.1301 -14.231  18.401  10.107
0.1301 -16.923  19.831   6.988
0.1301 -15.443  17.904   8.081
-0.0772 -5.856  27.867   0.018
-0.1309 -5.747  26.921   1.082
-0.1309 -4.685  28.276  -0.634
-0.0537 -7.181  28.448  -0.364
-0.1269 -4.497  26.489   1.487
-0.1269 -3.446  27.810  -0.218
-0.1349 -3.370  26.927   0.835
0.1301 -6.686  26.584   1.575
0.1301 -4.792  29.008  -1.447
0.0441 -7.216  29.493  -0.361
0.0441 -7.648  28.004  -1.328
0.0441 -7.781  28.202   0.541
0.1301 -4.356  25.931   2.431
0.1301 -2.501  28.149  -0.729
0.1301 -2.344  26.523   1.150
-0.0772 2.595  17.054   3.137
-0.1309 1.264  17.346   3.233
-0.1309 3.464  17.836   2.365
-0.0537 3.160  15.909   4.038
-0.1269 0.870  18.548   2.677
-0.1269 2.992  18.974   1.691
-0.1349 1.639  19.324   1.886
0.1301 0.540  16.695   3.709
0.1301 4.504  17.449   2.313
0.0441 2.348  15.292   4.448
0.0441 3.885  15.258   3.518
0.0441 3.750  16.259   4.930
0.1301 -0.207  18.830   2.906
0.1301 3.645  19.528   1.110
0.1301 1.230  20.202   1.368
-0.0772 -8.031  22.155  14.653
-0.1309 -6.858  21.732  14.039
-0.1309 -8.748  21.395  15.532
-0.0537 -8.622  23.516  14.295
-0.1269 -6.407  20.424  14.202
-0.1269 -8.286  20.075  15.770
-0.1349 -7.164  19.601  15.037
0.1301 -6.346  22.429  13.306
0.1301 -9.603  21.808  15.989
0.0441 -9.125  23.492  13.349
0.0441 -9.333  23.893  15.059
0.0441 -7.855  24.225  14.275
0.1301 -5.630  19.975  13.587
0.1301 -8.821  19.484  16.452
0.1301 -6.812  18.568  15.215
-0.0772 10.303   9.950  -7.738
-0.1309 10.392   9.741  -9.155
-0.1309 9.085   9.519  -7.099
-0.0537 11.384  10.654  -6.989
-0.1269 9.354   9.110  -9.776
-0.1269 8.009   9.055  -7.825
-0.1349 8.159   8.734  -9.218
0.1301 11.322   9.851  -9.709
0.1301 8.954   9.547  -6.000
0.0441 12.398  10.391  -7.437
0.0441 11.190  11.763  -6.946
0.0441 11.404  10.277  -6.005
0.1301 9.477   8.945 -10.899
0.1301 7.063   8.796  -7.358
0.1301 7.286   8.363  -9.752
-0.0772 5.250  18.284  21.096
-0.1309 6.290  18.866  21.753
-0.1309 5.432  17.135  20.361
-0.0537 3.884  18.955  21.167
-0.1269 7.577  18.306  21.780
-0.1269 6.674  16.544  20.277
-0.1349 7.776  17.151  20.986
0.1301 6.047  19.769  22.297
0.1301 4.567  16.555  19.987
0.0441 3.372  19.044  20.143
0.0441 3.208  18.435  21.796
0.0441 3.971  20.030  21.440
0.1301 8.382  18.690  22.421
0.1301 6.786  15.614  19.817
0.1301 8.605  16.508  21.020
-0.0772 18.854  14.356  -2.931
-0.1309 17.484  14.450  -2.652
-0.1309 19.230  14.332  -4.317
-0.0537 19.918  14.059  -1.902
-0.1269 16.602  14.702  -3.725
-0.1269 18.365  14.610  -5.421
-0.1349 17.023  14.661  -5.072
0.1301 17.162  14.324  -1.676
0.1301 20.257  14.093  -4.615
0.0441 19.450  13.773  -1.013
0.0441 20.513  13.144  -2.191
0.0441 20.589  14.914  -1.702
0.1301 15.529  14.708  -3.501
0.1301 18.752  14.431  -6.436
0.1301 16.343  14.569  -5.860
-0.0772 -3.805  16.813 -20.657
-0.1309 -3.054  17.431 -19.658
-0.1309 -3.957  17.554 -21.821
-0.0537 -4.331  15.427 -20.458
-0.1269 -2.279  18.539 -19.907
-0.1269 -3.360  18.795 -22.082
-0.1349 -2.444  19.259 -21.102
0.1301 -2.881  17.017 -18.691
0.1301 -4.493  17.154 -22.669
0.0441 -4.700  15.349 -19.418
0.0441 -5.123  15.203 -21.209
0.0441 -3.509  14.664 -20.667
0.1301 -1.606  18.936 -19.132
0.1301 -3.617  19.284 -23.014
0.1301 -1.885  20.105 -21.330
-0.0772 4.853  15.835 -22.327
-0.1309 5.505  16.917 -21.774
-0.1309 4.434  14.723 -21.527
-0.0537 4.432  15.849 -23.849
-0.1269 5.721  16.851 -20.359
-0.1269 4.663  14.689 -20.139
-0.1349 5.268  15.809 -19.569
0.1301 5.766  17.744 -22.380
0.1301 4.084  13.871 -22.002
0.0441 3.329  16.036 -23.994
0.0441 4.907  16.616 -24.452
0.0441 4.722  14.804 -24.164
0.1301 6.331  17.656 -19.893
0.1301 4.580  13.825 -19.575
0.1301 5.432  15.821 -18.496
-0.0772 -20.659  -6.282  -3.077
-0.1309 -21.939  -5.649  -3.151
-0.1309 -20.169  -6.745  -1.893
-0.0537 -20.013  -6.646  -4.401
-0.1269 -22.688  -5.469  -1.983
-0.1269 -20.863  -6.433  -0.649
-0.1349 -22.098  -5.865  -0.770
0.1301 -22.299  -5.447  -4.100
0.1301 -19.322  -7.398  -1.860
0.0441 -20.633  -7.330  -4.905
0.0441 -19.960  -5.841  -5.109
0.0441 -18.961  -7.065  -4.233
0.1301 -23.747  -5.125  -1.980
0.1301 -20.626  -6.900   0.305
0.1301 -22.680  -5.771   0.141
-0.0772 -15.448 -21.631  -0.719
-0.1309 -15.965 -20.680  -1.667
-0.1309 -14.298 -21.236  -0.067
-0.0537 -16.277 -22.820  -0.340
-0.1269 -15.268 -19.487  -1.965
-0.1269 -13.502 -20.101  -0.368
-0.1349 -14.038 -19.247  -1.344
0.1301 -16.842 -21.052  -2.292
0.1301 -13.845 -21.942   0.640
0.0441 -16.693 -23.428  -1.199
0.0441 -15.603 -23.573   0.167
0.0441 -17.067 -22.515   0.300
0.1301 -15.705 -18.978  -2.775
0.1301 -12.558 -19.858   0.165
0.1301 -13.497 -18.305  -1.541
-0.0772 -20.651   3.215  -8.207
-0.1309 -20.209   4.247  -9.025
-0.1309 -19.706   2.238  -7.768
-0.0537 -22.086   3.044  -7.935
-0.1269 -18.808   4.515  -9.213
-0.1269 -18.289   2.501  -7.928
-0.1349 -17.855   3.614  -8.622
0.1301 -20.926   4.791  -9.579
0.1301 -20.048   1.388  -7.158
0.0441 -22.317   2.457  -7.025
0.0441 -22.656   4.001  -7.892
0.0441 -22.636   2.578  -8.780
0.1301 -18.434   5.253  -9.945
0.1301 -17.479   1.894  -7.493
0.1301 -16.786   3.713  -8.738
-0.0772 9.575  19.984   1.274
-0.1309 8.424  20.662   1.700
-0.1309 9.519  18.887   0.452
-0.0537 10.859  20.550   1.787
-0.1269 7.198  20.178   1.236
-0.1269 8.342  18.326   0.027
-0.1349 7.133  19.057   0.345
0.1301 8.534  21.640   2.203
0.1301 10.404  18.343   0.206
0.0441 11.706  20.036   1.414
0.0441 10.809  21.650   1.527
0.0441 10.888  20.483   2.849
0.1301 6.262  20.679   1.460
0.1301 8.314  17.442  -0.689
0.1301 6.187  18.744  -0.125
-0.0772 9.200  26.489  -8.210
-0.1309 7.863  26.617  -8.603
-0.1309 9.593  26.953  -6.935
-0.0537 10.296  25.893  -9.171
-0.1269 6.940  27.164  -7.729
-0.1269 8.622  27.524  -6.051
-0.1349 7.279  27.639  -6.485
0.1301 7.435  26.226  -9.536
0.1301 10.616  27.001  -6.588
0.0441 10.492  24.824  -9.074
0.0441 10.159  26.207 -10.216
0.0441 11.228  26.359  -8.908
0.1301 5.933  27.228  -8.111
0.1301 8.928  27.774  -5.050
0.1301 6.474  28.096  -5.882
-0.0772 -13.313  21.413  -2.430
-0.1309 -13.120  20.236  -3.178
-0.1309 -13.731  22.592  -3.108
-0.0537 -12.788  21.597  -0.994
-0.1269 -13.425  20.172  -4.542
-0.1269 -14.037  22.552  -4.502
-0.1349 -13.860  21.317  -5.207
0.1301 -12.743  19.390  -2.679
0.1301 -13.812  23.493  -2.482
0.0441 -12.857  22.615  -0.630
0.0441 -13.262  20.873  -0.333
0.0441 -11.758  21.331  -0.949
0.1301 -13.375  19.254  -5.109
0.1301 -14.376  23.488  -5.016
0.1301 -14.197  21.314  -6.284
-0.0772 8.169  12.278  -3.951
-0.1309 9.297  12.319  -3.132
-0.1309 7.292  11.176  -3.887
-0.0537 7.783  13.377  -4.828
-0.1269 9.685  11.244  -2.336
-0.1269 7.633  10.099  -3.116
-0.1349 8.780  10.137  -2.304
0.1301 9.873  13.253  -3.157
0.1301 6.388  11.095  -4.533
0.0441 6.883  13.827  -4.454
0.0441 8.569  14.131  -4.891
0.0441 7.599  12.977  -5.789
0.1301 10.457  11.328  -1.600
0.1301 7.032   9.223  -3.195
0.1301 8.847   9.241  -1.614
-0.0772 -16.221  19.384   2.623
-0.1309 -17.064  18.270   2.796
-0.1309 -15.694  19.688   1.364
-0.0537 -15.819  20.285   3.741
-0.1269 -17.331  17.418   1.673
-0.1269 -15.997  18.859   0.304
-0.1349 -16.766  17.719   0.443
0.1301 -17.430  18.094   3.816
0.1301 -15.133  20.571   1.110
0.0441 -16.744  20.490   4.457
0.0441 -15.160  19.746   4.409
0.0441 -15.378  21.240   3.368
0.1301 -17.875  16.428   1.836
0.1301 -15.599  19.079  -0.702
0.1301 -16.906  17.016  -0.405
-0.0772 18.935   6.730 -14.290
-0.1309 17.658   6.349 -13.792
-0.1309 20.025   6.746 -13.424
-0.0537 19.066   6.910 -15.728
-0.1269 17.462   6.094 -12.431
-0.1269 19.839   6.284 -12.105
-0.1349 18.546   6.216 -11.533
0.1301 16.857   6.165 -14.538
0.1301 20.998   6.979 -13.787
0.0441 19.824   7.606 -16.024
0.0441 19.282   5.928 -16.160
0.0441 18.051   7.226 -16.084
0.1301 16.450   5.948 -12.022
0.1301 20.712   6.311 -11.453
0.1301 18.382   6.182 -10.428
-0.0772 25.981   4.152   6.485
-0.1309 25.010   3.787   5.500
-0.1309 26.719   5.273   6.402
-0.0537 26.241   3.130   7.642
-0.1269 24.932   4.636   4.403
-0.1269 26.556   6.162   5.350
-0.1349 25.700   5.841   4.288
0.1301 24.493   2.844   5.525
0.1301 27.480   5.552   7.180
0.0441 27.307   2.929   7.637
0.0441 25.911   3.561   8.603
0.0441 25.782   2.164   7.499
0.1301 24.324   4.178   3.598
0.1301 27.230   6.987   5.311
0.1301 25.640   6.496   3.373
-0.0772 -8.977  20.921 -13.299
-0.1309 -8.786  21.198 -14.657
-0.1309 -10.005  21.679 -12.707
-0.0537 -8.165  19.830 -12.547
-0.1269 -9.500  22.175 -15.396
-0.1269 -10.712  22.628 -13.368
-0.1349 -10.445  22.989 -14.703
0.1301 -8.138  20.485 -15.218
0.1301 -10.421  21.258 -11.782
0.0441 -8.004  18.913 -13.174
0.0441 -7.254  20.257 -12.405
0.0441 -8.657  19.762 -11.553
0.1301 -9.375  22.205 -16.461
0.1301 -11.440  23.173 -12.838
0.1301 -11.003  23.739 -15.232
-0.0772 2.867  -2.185  -7.371
-0.1309 4.210  -2.086  -6.964
-0.1309 2.180  -1.044  -7.940
-0.0537 2.025  -3.416  -7.179
-0.1269 4.846  -0.827  -7.219
-0.1269 2.811   0.126  -8.180
-0.1349 4.165   0.259  -7.775
0.1301 4.767  -2.914  -6.581
0.1301 1.061  -1.109  -8.177
0.0441 0.928  -3.224  -7.251
0.0441 2.153  -4.197  -7.927
0.0441 2.338  -3.955  -6.284
0.1301 5.876  -0.678  -6.833
0.1301 2.213   0.894  -8.673
0.1301 4.590   1.280  -7.792
-0.0772 8.222  -0.693  -4.099
-0.1309 8.720  -1.635  -3.169
-0.1309 7.230   0.145  -3.721
-0.0537 9.021  -0.433  -5.365
-0.1269 8.190  -1.673  -1.892
-0.1269 6.662   0.089  -2.511
-0.1349 7.103  -0.802  -1.602
0.1301 9.552  -2.250  -3.416
0.1301 6.964   0.929  -4.426
0.0441 9.758   0.307  -5.167
0.0441 9.623  -1.306  -5.591
0.0441 8.404  -0.191  -6.184
0.1301 8.466  -2.384  -1.134
0.1301 5.864   0.696  -2.245
0.1301 6.605  -0.781  -0.615
-0.0772 23.070   7.800   8.567
-0.1309 21.723   8.111   8.864
-0.1309 24.024   8.703   9.031
-0.0537 23.453   6.517   7.877
-0.1269 21.383   9.392   9.398
-0.1269 23.631   9.797   9.859
-0.1349 22.288  10.199   9.988
0.1301 20.958   7.487   8.489
0.1301 25.118   8.567   8.948
0.0441 22.608   5.834   7.818
0.0441 23.961   6.712   6.898
0.0441 24.134   5.991   8.518
0.1301 20.316   9.667   9.437
0.1301 24.384  10.344  10.381
0.1301 21.995  11.068  10.573
-0.0772 7.790   2.027  -9.148
-0.1309 8.590   2.611  -8.184
-0.1309 7.143   2.880 -10.040
-0.0537 7.668   0.534  -9.366
-0.1269 8.678   4.006  -8.068
-0.1269 7.380   4.234 -10.021
-0.1349 8.181   4.831  -9.100
0.1301 8.989   1.940  -7.367
0.1301 6.484   2.488 -10.821
0.0441 8.327   0.068 -10.125
0.0441 7.813   0.078  -8.400
0.0441 6.610   0.250  -9.554
0.1301 9.335   4.495  -7.361
0.1301 6.964   4.840 -10.808
0.1301 8.359   5.897  -9.034
-0.0772 12.717 -13.875  -2.993
-0.1309 11.635 -13.193  -3.607
-0.1309 13.447 -14.673  -3.808
-0.0537 13.004 -13.741  -1.531
-0.1269 11.291 -13.339  -4.933
-0.1269 13.073 -14.946  -5.161
-0.1349 12.073 -14.167  -5.731
0.1301 11.061 -12.403  -3.100
0.1301 14.287 -15.172  -3.296
0.0441 13.963 -14.185  -1.321
0.0441 12.976 -12.699  -1.189
0.0441 12.242 -14.319  -0.929
0.1301 10.406 -12.875  -5.412
0.1301 13.726 -15.614  -5.774
0.1301 11.887 -14.293  -6.789
-0.0772 14.216  19.709 -16.916
-0.1309 13.279  19.042 -17.816
-0.1309 15.417  19.033 -16.667
-0.0537 13.984  21.109 -16.468
-0.1269 13.548  17.789 -18.384
-0.1269 15.736  17.836 -17.389
-0.1349 14.779  17.169 -18.159
0.1301 12.294  19.496 -17.965
0.1301 16.100  19.520 -16.002
0.0441 14.951  21.673 -16.563
0.0441 13.141  21.588 -17.003
0.0441 13.760  21.094 -15.447
0.1301 12.773  17.375 -19.025
0.1301 16.722  17.489 -17.331
0.1301 15.113  16.256 -18.645
-0.0772 -11.815  26.953  -3.216
-0.1309 -12.120  25.967  -4.206
-0.1309 -10.449  27.386  -3.081
-0.0537 -12.981  27.495  -2.453
-0.1269 -11.103  25.298  -4.875
-0.1269 -9.420  26.670  -3.713
-0.1349 -9.728  25.637  -4.608
0.1301 -13.086  25.762  -4.456
0.1301 -10.213  28.129  -2.361
0.0441 -12.614  28.227  -1.761
0.0441 -13.738  27.852  -3.199
0.0441 -13.411  26.698  -1.874
0.1301 -11.351  24.556  -5.632
0.1301 -8.333  26.982  -3.499
0.1301 -8.854  25.203  -5.232
-0.0772 -12.042   8.397  -2.132
-0.1309 -13.018   7.730  -1.373
-0.1309 -10.893   8.951  -1.498
-0.0537 -12.259   8.586  -3.651
-0.1269 -12.790   7.579   0.041
-0.1269 -10.639   8.774  -0.175
-0.1349 -11.652   8.111   0.670
0.1301 -13.967   7.499  -1.799
0.1301 -10.270   9.540  -2.134
0.0441 -11.984   9.623  -3.966
0.0441 -11.608   7.950  -4.290
0.0441 -13.283   8.478  -4.034
0.1301 -13.589   7.120   0.630
0.1301 -9.814   9.286   0.333
0.1301 -11.461   7.882   1.686
-0.0772 22.055  -1.020  21.977
-0.1309 22.935  -0.004  22.334
-0.1309 22.445  -2.007  21.037
-0.0537 20.802  -1.200  22.569
-0.1269 24.130   0.116  21.661
-0.1269 23.749  -2.016  20.585
-0.1349 24.629  -0.960  20.827
0.1301 22.620   0.819  22.976
0.1301 21.884  -2.897  20.884
0.0441 20.935  -1.661  23.571
0.0441 20.194  -0.336  22.693
0.0441 20.274  -1.954  22.060
0.1301 24.730   0.991  21.819
0.1301 24.081  -2.909  20.042
0.1301 25.494  -0.808  20.200
-0.0772 24.528  14.994   8.726
-0.1309 24.107  13.677   8.738
-0.1309 24.916  15.659   7.561
-0.0537 24.609  15.799  10.002
-0.1269 24.034  13.012   7.527
-0.1269 24.690  15.013   6.309
-0.1349 24.258  13.683   6.326
0.1301 23.863  13.286   9.706
0.1301 25.348  16.680   7.607
0.0441 24.544  15.072  10.876
0.0441 25.619  16.288  10.034
0.0441 23.797  16.604  10.140
0.1301 23.675  12.022   7.454
0.1301 24.937  15.496   5.404
0.1301 24.172  13.139   5.336
-0.0772 15.208   9.565 -15.253
-0.1309 14.497  10.807 -15.578
-0.1309 14.948   8.422 -16.053
-0.0537 16.370   9.669 -14.249
-0.1269 13.549  10.789 -16.583
-0.1269 13.874   8.416 -17.005
-0.1349 13.265   9.636 -17.309
0.1301 14.791  11.660 -15.000
0.1301 15.568   7.577 -15.993
0.0441 17.328   9.878 -14.777
0.0441 16.181  10.461 -13.563
0.0441 16.445   8.760 -13.631
0.1301 13.071  11.719 -16.762
0.1301 13.711   7.538 -17.578
0.1301 12.590   9.698 -18.102
-0.0772 -6.408  16.617 -13.885
-0.1309 -7.439  16.352 -14.762
-0.1309 -6.359  15.884 -12.690
-0.0537 -5.248  17.513 -14.339
-0.1269 -8.515  15.519 -14.427
-0.1269 -7.420  15.044 -12.288
-0.1349 -8.481  14.846 -13.190
0.1301 -7.450  16.708 -15.820
0.1301 -5.620  16.165 -11.909
0.0441 -4.831  17.284 -15.332
0.0441 -5.567  18.568 -14.398
0.0441 -4.371  17.486 -13.613
0.1301 -9.390  15.324 -15.031
0.1301 -7.380  14.560 -11.338
0.1301 -9.263  14.191 -12.910
-0.0772 13.283  -1.440   2.782
-0.1309 12.772  -2.208   1.761
-0.1309 14.629  -1.607   3.235
-0.0537 12.355  -0.356   3.319
-0.1269 13.520  -3.171   1.122
-0.1269 15.412  -2.535   2.556
-0.1349 14.853  -3.360   1.504
0.1301 11.730  -1.988   1.425
0.1301 14.945  -0.963   4.056
0.0441 11.533  -0.725   3.954
0.0441 12.899   0.362   3.898
0.0441 11.851   0.252   2.571
0.1301 12.986  -3.770   0.461
0.1301 16.408  -2.656   2.900
0.1301 15.480  -4.070   0.950
-0.0772 0.324  24.542   6.435
-0.1309 -0.337  23.330   6.697
-0.1309 -0.421  25.672   6.077
-0.0537 1.843  24.574   6.370
-0.1269 -1.745  23.301   6.612
-0.1269 -1.755  25.591   5.903
-0.1349 -2.425  24.453   6.242
0.1301 0.305  22.459   6.864
0.1301 0.056  26.674   6.016
0.0441 2.218  23.964   7.255
0.0441 2.287  24.089   5.500
0.0441 2.247  25.583   6.543
0.1301 -2.275  22.357   6.848
0.1301 -2.401  26.501   5.693
0.1301 -3.528  24.385   6.247
-0.0772 17.069  17.684  -9.221
-0.1309 17.238  17.756  -7.768
-0.1309 18.083  17.029  -9.917
-0.0537 15.852  18.430  -9.885
-0.1269 18.366  17.196  -7.082
-0.1269 19.261  16.661  -9.276
-0.1349 19.370  16.661  -7.880
0.1301 16.409  18.065  -7.089
0.1301 17.993  17.149 -10.970
0.0441 15.018  17.832  -9.530
0.0441 15.636  19.356  -9.448
0.0441 15.825  18.411 -10.967
0.1301 18.348  17.162  -5.966
0.1301 20.051  16.315  -9.985
0.1301 20.291  16.292  -7.368
-0.0772 10.945   2.041  -1.839
-0.1309 10.127   2.512  -2.839
-0.1309 12.372   2.131  -2.011
-0.0537 10.397   1.407  -0.558
-0.1269 10.709   3.099  -3.996
-0.1269 12.906   2.711  -3.101
-0.1349 12.074   3.286  -4.061
0.1301 9.078   2.400  -2.716
0.1301 12.982   1.810  -1.177
0.0441 9.555   0.705  -0.734
0.0441 11.145   0.881   0.059
0.0441 10.030   2.233   0.027
0.1301 10.072   3.394  -4.844
0.1301 14.028   2.901  -3.173
0.1301 12.502   3.794  -4.908
-0.0772 9.366  18.146  -7.207
-0.1309 8.946  18.140  -5.854
-0.1309 8.385  18.004  -8.200
-0.0537 10.887  18.274  -7.523
-0.1269 7.567  18.070  -5.463
-0.1269 7.039  17.917  -7.801
-0.1349 6.625  17.901  -6.481
0.1301 9.617  18.390  -5.070
0.1301 8.652  17.921  -9.230
0.0441 11.135  18.033  -8.584
0.0441 11.403  19.179  -7.198
0.0441 11.425  17.511  -6.998
0.1301 7.215  18.339  -4.469
0.1301 6.307  17.563  -8.576
0.1301 5.558  17.784  -6.235
-0.0772 7.367  -4.971   4.155
-0.1309 8.188  -6.057   4.451
-0.1309 8.019  -3.748   3.792
-0.0537 5.899  -5.099   4.226
-0.1269 9.593  -6.041   4.333
-0.1269 9.435  -3.667   3.671
-0.1349 10.210  -4.796   3.976
0.1301 7.752  -7.082   4.730
0.1301 7.527  -2.819   3.615
0.0441 5.647  -6.125   3.778
0.0441 5.521  -5.021   5.294
0.0441 5.422  -4.332   3.600
0.1301 10.268  -6.859   4.502
0.1301 9.912  -2.704   3.302
0.1301 11.291  -4.670   3.846
-0.0772 12.471  16.545   0.701
-0.1309 12.624  16.903   2.092
-0.1309 13.375  17.078  -0.222
-0.0537 11.405  15.565   0.258
-0.1269 13.647  17.800   2.459
-0.1269 14.317  18.015   0.174
-0.1349 14.469  18.327   1.526
0.1301 12.047  16.524   2.905
0.1301 13.326  16.829  -1.266
0.0441 11.835  14.548   0.290
0.0441 10.588  15.587   0.957
0.0441 11.019  15.826  -0.693
0.1301 13.771  18.078   3.504
0.1301 14.888  18.644  -0.517
0.1301 15.147  19.162   1.739
-0.0772 4.405 -15.435 -10.675
-0.1309 5.661 -15.217 -10.212
-0.1309 4.274 -15.924 -12.012
-0.0537 3.248 -15.289  -9.723
-0.1269 6.789 -15.535 -10.959
-0.1269 5.378 -16.043 -12.853
-0.1349 6.706 -15.980 -12.276
0.1301 5.778 -14.763  -9.213
0.1301 3.304 -16.205 -12.320
0.0441 2.406 -14.672 -10.219
0.0441 2.684 -16.231  -9.507
0.0441 3.372 -14.812  -8.722
0.1301 7.793 -15.507 -10.492
0.1301 5.181 -16.315 -13.821
0.1301 7.597 -16.192 -12.903
-0.0772 5.715  13.934 -11.838
-0.1309 6.541  13.199 -10.995
-0.1309 4.327  13.627 -11.967
-0.0537 6.273  15.143 -12.629
-0.1269 5.982  12.096 -10.301
-0.1269 3.794  12.528 -11.244
-0.1349 4.677  11.705 -10.485
0.1301 7.592  13.359 -10.903
0.1301 3.723  14.042 -12.715
0.0441 6.833  15.858 -12.037
0.0441 6.955  14.778 -13.406
0.0441 5.528  15.803 -13.082
0.1301 6.650  11.550  -9.648
0.1301 2.776  12.186 -11.501
0.1301 4.335  10.809 -10.030
-0.0772 1.906  20.080  -2.889
-0.1309 0.519  20.323  -2.818
-0.1309 2.696  20.654  -1.845
-0.0537 2.440  19.322  -4.066
-0.1269 -0.068  21.074  -1.747
-0.1269 2.113  21.374  -0.806
-0.1349 0.777  21.533  -0.695
0.1301 -0.208  19.858  -3.537
0.1301 3.719  20.405  -1.720
0.0441 2.563  20.083  -4.806
0.0441 3.461  18.891  -3.953
0.0441 1.794  18.569  -4.384
0.1301 -1.156  21.127  -1.583
0.1301 2.826  21.863  -0.055
0.1301 0.271  21.987   0.075
-0.0772 2.917  15.001  -6.230
-0.1309 2.129  14.597  -5.197
-0.1309 2.615  16.065  -7.049
-0.0537 4.073  14.032  -6.626
-0.1269 1.088  15.411  -4.761
-0.1269 1.433  16.867  -6.769
-0.1349 0.715  16.580  -5.521
0.1301 2.305  13.603  -4.785
0.1301 3.200  16.206  -7.943
0.0441 3.998  13.579  -7.661
0.0441 5.005  14.654  -6.367
0.0441 4.218  13.282  -5.834
0.1301 0.647  15.296  -3.801
0.1301 1.134  17.731  -7.378
0.1301 -0.160  17.091  -5.240
-0.0772 6.623 -10.143  -5.116
-0.1309 6.175  -9.291  -6.163
-0.1309 7.993 -10.228  -4.758
-0.0537 5.655 -11.061  -4.392
-0.1269 7.181  -8.505  -6.836
-0.1269 8.930  -9.405  -5.371
-0.1349 8.533  -8.520  -6.386
0.1301 5.181  -9.338  -6.461
0.1301 8.248 -10.851  -3.944
0.0441 6.062 -11.436  -3.487
0.0441 4.763 -10.477  -4.037
0.0441 5.267 -11.847  -4.995
0.1301 6.844  -7.828  -7.664
0.1301 10.041  -9.438  -5.247
0.1301 9.274  -7.955  -6.872
-0.0772 23.932   1.954 -16.298
-0.1309 23.777   2.548 -15.070
-0.1309 25.203   1.370 -16.585
-0.0537 22.808   1.932 -17.349
-0.1269 24.787   2.781 -14.166
-0.1269 26.266   1.500 -15.618
-0.1349 26.028   2.171 -14.410
0.1301 22.825   3.041 -14.754
0.1301 25.372   0.877 -17.487
0.0441 22.177   1.096 -17.127
0.0441 22.234   2.853 -17.469
0.0441 23.174   1.662 -18.357
0.1301 24.595   3.259 -13.202
0.1301 27.272   1.070 -15.802
0.1301 26.875   2.173 -13.660
-0.0772 -0.995   2.352  -6.196
-0.1309 -0.592   3.527  -5.579
-0.1309 -0.134   1.243  -6.241
-0.0537 -2.292   2.303  -7.036
-0.1269 0.574   3.572  -4.791
-0.1269 1.097   1.262  -5.517
-0.1349 1.423   2.438  -4.799
0.1301 -1.242   4.355  -5.447
0.1301 -0.337   0.414  -7.015
0.0441 -2.994   1.595  -6.593
0.0441 -2.806   3.244  -7.114
0.0441 -2.072   1.934  -8.009
0.1301 0.866   4.454  -4.222
0.1301 1.702   0.397  -5.512
0.1301 2.424   2.503  -4.320
-0.0772 7.327  -8.333  19.838
-0.1309 6.284  -7.494  19.585
-0.1309 8.170  -8.654  18.710
-0.0537 7.596  -8.876  21.190
-0.1269 5.951  -7.119  18.321
-0.1269 7.935  -8.114  17.421
-0.1349 6.844  -7.291  17.210
0.1301 5.636  -7.263  20.419
0.1301 8.927  -9.406  18.915
0.0441 8.055  -8.231  21.921
0.0441 6.621  -9.269  21.549
0.0441 8.292  -9.689  21.156
0.1301 5.043  -6.568  18.178
0.1301 8.670  -8.340  16.693
0.1301 6.734  -6.839  16.222
-0.0772 8.828   1.341   9.309
-0.1309 8.445   2.679   9.005
-0.1309 10.219   0.966   9.245
