1611

-0.6497 28.449  -7.595   0.202
0.4215 28.602  -7.896  -0.738
0.0372 25.239  -3.895  14.962
0.1166 25.394  -4.044  13.900
0.0372 24.382  -4.349  13.550
0.0372 26.081  -4.770  13.621
-0.6497 25.738  -2.828  13.317
0.4215 25.741  -2.960  12.351
0.0372 24.574  -7.903  -0.077
0.1166 23.804  -8.341   0.541
0.0372 24.111  -9.308   0.887
0.0372 22.987  -8.553  -0.094
-0.6497 23.552  -7.504   1.712
0.4215 24.309  -7.522   2.350
0.0372 20.476  -2.270   4.016
0.1166 21.039  -1.289   4.058
0.0372 20.732  -0.798   3.123
0.0372 22.135  -1.352   4.218
-0.6497 20.434  -0.525   5.071
0.4215 20.296  -1.201   5.810
0.0372 21.441  -4.739  -1.015
0.1166 22.514  -4.896  -1.204
0.0372 22.560  -5.940  -1.546
0.0372 23.136  -4.917  -0.280
-0.6497 23.168  -3.964  -2.125
0.4215 22.520  -3.744  -2.805
0.0372 25.179  -2.324   8.123
0.1166 26.191  -2.617   7.711
0.0372 26.273  -2.384   6.674
0.0372 26.469  -3.661   7.979
-0.6497 27.034  -1.665   8.367
0.4215 27.359  -2.062   9.195
0.0372 18.501 -15.246   5.083
0.1166 18.869 -15.771   5.947
0.0372 18.534 -16.812   5.827
0.0372 18.424 -15.247   6.809
-0.6497 20.259 -15.655   5.908
0.4215 20.609 -16.180   6.684
0.0372 20.150 -22.685   2.599
0.1166 19.803 -22.801   1.627
0.0372 18.737 -22.580   1.604
0.0372 19.954 -23.859   1.385
-0.6497 20.496 -21.917   0.792
0.4215 20.795 -21.184   1.393
0.0372 28.863   1.330   6.516
0.1166 27.891   0.985   6.232
0.0372 27.898   0.091   5.630
0.0372 27.530   1.839   5.713
-0.6497 27.163   0.764   7.424
0.4215 27.400  -0.066   7.883
0.0372 27.063  -1.258  -4.801
0.1166 27.467  -1.335  -3.853
0.0372 28.410  -0.868  -3.901
0.0372 27.592  -2.332  -3.420
-0.6497 26.657  -0.638  -2.945
0.4215 27.273  -0.105  -2.412
0.0372 24.625  -9.834   5.417
0.1166 24.866  -8.793   5.318
0.0372 25.762  -8.569   5.883
0.0372 23.964  -8.265   5.651
-0.6497 25.017  -8.356   4.009
0.4215 25.889  -8.627   3.850
0.0372 20.229  -7.332 -11.317
0.1166 20.318  -6.622 -10.434
0.0372 19.223  -6.496 -10.172
0.0372 20.762  -5.722 -10.788
-0.6497 20.924  -7.205  -9.275
0.4215 21.223  -6.479  -8.680
0.0372 23.452   0.677  -3.685
0.1166 22.959  -0.233  -3.940
0.0372 22.011  -0.269  -4.510
0.0372 22.706  -0.715  -3.058
-0.6497 23.971  -1.001  -4.562
0.4215 24.760  -0.783  -4.052
0.0372 29.019  -6.197   8.285
0.1166 28.178  -6.620   8.790
0.0372 27.570  -5.831   9.271
0.0372 28.604  -7.268   9.560
-0.6497 27.377  -7.385   7.926
0.4215 27.204  -6.808   7.219
0.0372 23.950 -11.251  -7.768
0.1166 23.356 -11.185  -6.795
0.0372 23.112 -10.188  -6.719
0.0372 23.993 -11.499  -5.959
-0.6497 22.192 -12.013  -6.858
0.4215 22.407 -12.830  -7.295
0.0372 24.380   6.683 -13.773
0.1166 25.062   5.997 -13.313
0.0372 26.076   6.480 -13.139
0.0372 25.311   5.183 -13.927
-0.6497 24.483   5.614 -12.108
0.4215 23.625   5.209 -12.290
0.0372 28.590   2.731  10.691
0.1166 27.609   2.519  10.255
0.0372 27.716   1.691   9.503
0.0372 27.175   3.407   9.752
-0.6497 26.746   2.100  11.334
0.4215 25.861   1.993  10.950
0.0372 20.450  -2.052  -3.048
0.1166 19.977  -2.681  -3.779
0.0372 20.219  -2.216  -4.769
0.0372 18.964  -2.632  -3.600
-0.6497 20.482  -3.979  -3.715
0.4215 19.912  -4.513  -3.160
0.0372 23.992  -5.144 -13.558
0.1166 24.354  -5.466 -12.598
0.0372 24.374  -4.579 -11.988
0.0372 25.327  -5.842 -12.679
-0.6497 23.449  -6.526 -12.020
0.4215 23.681  -6.478 -11.067
0.0372 25.238  -1.570  -8.517
0.1166 24.967  -1.540  -7.541
0.0372 25.762  -0.902  -7.037
0.0372 24.796  -2.513  -7.184
-0.6497 23.739  -0.965  -7.268
0.4215 23.564  -0.991  -6.259
0.0372 23.255  -1.847 -11.494
0.1166 23.146  -1.872 -10.423
0.0372 23.987  -2.497 -10.018
0.0372 22.243  -2.412 -10.177
-0.6497 23.091  -0.595  -9.838
0.4215 23.293  -0.744  -8.882
0.0372 27.941  -1.098  14.656
0.1166 27.564  -0.115  14.299
0.0372 27.812   0.688  15.035
0.0372 26.473  -0.066  14.340
-0.6497 28.012   0.059  12.965
0.4215 27.695   0.852  12.568
0.0372 21.865  -3.338  -7.158
0.1166 21.270  -4.226  -7.336
0.0372 20.839  -4.286  -8.414
0.0372 20.380  -4.253  -6.618
-0.6497 22.091  -5.313  -7.306
0.4215 22.660  -5.375  -6.493
0.0372 17.275 -16.016  10.541
0.1166 17.807 -16.450   9.737
0.0372 18.906 -16.412   9.919
0.0372 17.465 -16.011   8.764
-0.6497 17.451 -17.784   9.728
0.4215 18.051 -18.317   9.196
0.0372 24.610  -8.028  -8.527
0.1166 24.822  -6.937  -8.522
0.0372 25.785  -6.739  -8.931
0.0372 24.801  -6.571  -7.466
-0.6497 23.917  -6.216  -9.306
0.4215 23.218  -5.925  -8.641
0.0372 23.850   4.036   8.085
0.1166 24.537   3.256   8.280
0.0372 23.974   2.403   8.001
0.0372 24.699   3.316   9.387
-0.6497 25.809   3.431   7.542
0.4215 26.253   2.552   7.629
0.0372 27.595 -10.958   9.035
0.1166 27.111 -10.229   9.649
0.0372 27.730  -9.432  10.078
0.0372 26.601 -10.778  10.449
-0.6497 26.116  -9.505   8.959
0.4215 26.616  -8.829   8.435
0.0372 28.051 -12.792  -5.613
0.1166 27.212 -13.228  -5.156
0.0372 27.617 -13.650  -4.237
0.0372 26.660 -13.986  -5.722
-0.6497 26.323 -12.195  -4.975
0.4215 26.714 -11.354  -5.387
0.0372 32.144   1.449   4.740
0.1166 31.300   0.750   4.594
0.0372 31.020   0.336   5.589
0.0372 31.842   0.084   3.971
-0.6497 30.192   1.400   3.990
0.4215 29.946   2.256   4.453
0.0372 18.954   0.612   6.716
0.1166 18.068  -0.008   6.811
0.0372 17.761  -0.395   5.822
0.0372 17.285   0.588   7.242
-0.6497 18.243  -1.169   7.622
0.4215 17.867  -1.846   7.045
0.0372 16.640 -22.623  -0.779
0.1166 15.901 -22.989  -0.110
0.0372 14.865 -22.709  -0.377
0.0372 16.101 -22.595   0.874
-0.6497 15.938 -24.392  -0.082
0.4215 16.169 -24.750  -0.955
0.0372 14.509  15.336  23.138
0.1166 14.199  14.540  22.538
0.0372 13.441  14.168  23.150
0.0372 14.934  13.718  22.491
-0.6497 13.538  14.928  21.310
0.4215 13.961  15.614  20.844
0.0372 13.996  10.526   5.673
0.1166 14.764  10.947   6.276
0.0372 14.933  11.855   5.784
0.0372 15.575  10.144   6.287
-0.6497 14.256  11.212   7.547
0.4215 13.681  10.424   7.719
0.0372 4.280  24.798  10.924
0.1166 4.991  25.508  10.491
0.0372 4.727  26.433  10.926
0.0372 4.977  25.534   9.445
-0.6497 6.193  25.026  11.069
0.4215 6.797  25.786  11.122
0.0372 2.949  24.700  14.970
0.1166 2.991  24.856  13.964
0.0372 3.998  24.482  13.691
0.0372 3.046  25.881  13.790
-0.6497 1.952  24.246  13.260
0.4215 2.055  23.330  13.461
0.0372 10.323  24.067  -1.272
0.1166 11.209  23.529  -1.500
0.0372 10.935  22.497  -1.431
0.0372 11.948  23.853  -0.728
-0.6497 11.673  23.788  -2.780
0.4215 11.771  24.705  -3.004
0.0372 3.465  22.062  12.629
0.1166 4.200  21.508  13.303
0.0372 5.044  21.213  12.678
0.0372 3.765  20.583  13.653
-0.6497 4.648  22.318  14.356
0.4215 5.476  22.713  14.036
0.0372 -3.661  22.502  10.396
0.1166 -2.747  22.588  10.997
0.0372 -2.211  21.662  10.712
0.0372 -3.097  22.527  12.072
-0.6497 -2.041  23.775  10.730
0.4215 -1.937  23.758   9.769
0.0372 18.918  25.948   1.110
0.1166 18.552  26.055   2.180
0.0372 18.363  27.091   2.361
0.0372 19.236  25.733   2.983
-0.6497 17.234  25.516   2.344
0.4215 16.656  26.076   1.818
0.0372 13.979  21.946   2.724
0.1166 14.186  22.973   2.601
0.0372 14.970  23.400   3.272
0.0372 13.275  23.532   2.764
-0.6497 14.642  23.087   1.270
0.4215 15.202  22.336   1.054
0.0372 17.620  21.225   4.538
0.1166 17.206  22.094   4.073
0.0372 16.581  22.577   4.786
0.0372 16.768  21.805   3.165
-0.6497 18.361  22.903   3.826
0.4215 18.169  23.850   3.770
0.0372 -1.067  29.832   8.890
0.1166 -1.063  29.006   9.558
0.0372 -2.075  28.697   9.554
0.0372 -0.766  29.387  10.499
-0.6497 -0.212  27.960   9.150
0.4215 -0.101  27.433   9.961
0.0372 0.427  26.203  -8.481
0.1166 0.559  26.429  -7.384
0.0372 1.140  25.657  -6.846
0.0372 -0.452  26.425  -6.982
-0.6497 1.166  27.670  -7.186
0.4215 0.920  28.406  -7.790
0.0372 20.161  19.001   5.527
0.1166 19.916  18.901   4.461
0.0372 18.858  18.731   4.537
0.0372 20.492  18.157   3.918
-0.6497 20.179  20.202   3.932
0.4215 19.460  20.743   4.163
0.0372 6.458  22.804  -9.884
0.1166 5.821  23.685  -9.689
0.0372 5.800  23.839  -8.566
0.0372 4.894  23.503 -10.155
-0.6497 6.445  24.797 -10.269
0.4215 7.414  24.725 -10.375
0.0372 -1.508  25.124   7.537
0.1166 -1.827  24.205   7.146
0.0372 -1.391  24.117   6.119
0.0372 -2.891  24.178   7.090
-0.6497 -1.217  23.365   8.055
0.4215 -0.250  23.271   7.896
0.0372 1.223  23.465 -11.195
0.1166 0.563  22.911 -10.536
0.0372 0.997  21.940 -10.491
0.0372 -0.411  22.791 -11.016
-0.6497 0.605  23.589  -9.267
0.4215 -0.143  23.281  -8.731
0.0372 2.621  32.098  -2.625
0.1166 3.076  31.431  -3.307
0.0372 3.358  30.533  -2.820
0.0372 3.948  31.816  -3.726
-0.6497 2.202  31.111  -4.366
0.4215 1.526  30.469  -4.081
0.0372 -1.700  23.076  19.461
0.1166 -2.701  22.816  19.850
0.0372 -3.085  23.682  20.297
0.0372 -2.689  22.137  20.732
-0.6497 -3.562  22.249  18.898
0.4215 -3.289  21.344  18.727
0.0372 12.046  28.061  -5.449
0.1166 11.113  28.592  -5.593
0.0372 11.005  28.661  -6.634
0.0372 11.260  29.571  -5.213
-0.6497 10.007  27.924  -5.032
0.4215 9.598  27.373  -5.726
0.0372 6.649  21.181  -0.104
0.1166 7.684  21.168   0.311
0.0372 8.272  21.897  -0.213
0.0372 8.058  20.186   0.098
-0.6497 7.892  21.557   1.668
0.4215 7.587  20.873   2.252
0.0372 9.384  23.015   4.830
0.1166 10.165  22.908   4.044
0.0372 10.403  21.830   4.069
0.0372 11.128  23.418   4.215
-0.6497 9.590  23.325   2.837
0.4215 9.067  22.576   2.529
0.0372 9.292  24.599  -8.032
0.1166 8.971  25.568  -7.749
0.0372 7.924  25.670  -8.029
0.0372 9.502  26.403  -8.150
-0.6497 9.173  25.555  -6.358
0.4215 8.605  24.876  -5.928
0.0372 9.498  25.473   9.429
0.1166 9.541  25.977  10.430
0.0372 10.354  26.656  10.442
0.0372 9.637  25.193  11.149
-0.6497 8.368  26.610  10.558
0.4215 8.169  27.263   9.821
0.0372 23.187  20.635   5.635
0.1166 23.359  19.833   4.930
0.0372 22.984  18.887   5.328
0.0372 24.451  19.724   4.867
-0.6497 22.844  20.180   3.684
0.4215 21.887  20.188   3.722
0.0372 9.430  17.105  10.085
0.1166 9.989  17.928  10.525
0.0372 10.501  18.491   9.790
0.0372 10.745  17.660  11.201
-0.6497 8.985  18.801  11.097
0.4215 8.315  18.262  11.565
0.0372 3.562  24.988  -6.552
0.1166 3.933  25.709  -5.777
0.0372 4.551  26.382  -6.274
0.0372 4.487  25.141  -4.982
-0.6497 2.733  26.329  -5.203
0.4215 2.150  26.647  -5.904
0.0372 8.896  23.946  13.622
0.1166 8.219  24.588  14.089
0.0372 8.381  25.631  14.033
0.0372 8.300  24.405  15.144
-0.6497 6.880  24.255  13.688
0.4215 6.801  24.461  12.748
0.0372 6.632  25.885   7.716
0.1166 7.003  24.918   7.286
0.0372 7.533  24.336   8.036
0.0372 7.708  25.270   6.458
-0.6497 5.908  24.181   6.723
0.4215 5.226  24.877   6.574
0.0372 -3.175  16.972  15.121
0.1166 -2.595  16.940  16.081
0.0372 -2.731  15.940  16.558
0.0372 -3.181  17.620  16.757
-0.6497 -1.264  17.363  15.990
0.4215 -0.857  17.049  16.855
0.0372 13.630  27.641   0.593
0.1166 14.335  26.983   1.086
0.0372 14.045  25.986   1.329
0.0372 14.507  27.518   2.047
-0.6497 15.535  26.897   0.354
0.4215 15.292  26.129  -0.210
0.0372 20.435  13.413   3.787
0.1166 19.598  13.269   3.115
0.0372 18.740  13.650   3.677
0.0372 19.591  12.251   2.940
-0.6497 19.980  13.983   1.949
0.4215 20.845  14.341   2.111
0.0372 6.450  23.809   2.903
0.1166 6.138  24.464   2.129
0.0372 5.540  25.239   2.491
0.0372 5.666  23.792   1.433
-0.6497 7.249  25.164   1.714
0.4215 8.079  24.658   1.720
0.0372 7.826  21.682  13.885
0.1166 8.235  21.259  12.887
0.0372 8.141  22.099  12.081
0.0372 7.469  20.470  12.548
-0.6497 9.531  20.684  12.947
0.4215 9.561  20.010  12.246
0.0372 -5.120  25.366   5.747
0.1166 -4.536  26.301   5.566
0.0372 -4.959  26.710   4.640
0.0372 -3.428  25.975   5.517
-0.6497 -4.669  27.228   6.729
0.4215 -4.164  27.991   6.387
0.0372 12.280  21.907  -5.073
0.1166 12.958  21.195  -4.582
0.0372 13.924  21.022  -5.185
0.0372 12.286  20.202  -4.417
-0.6497 13.423  21.549  -3.248
0.4215 12.791  22.312  -2.962
0.0372 15.550  22.314   6.879
0.1166 14.515  22.436   7.214
0.0372 14.485  22.066   8.250
0.0372 13.747  21.972   6.625
-0.6497 14.334  23.863   7.117
0.4215 15.138  24.376   7.188
0.0372 5.992  21.459  18.681
0.1166 5.731  22.079  17.843
0.0372 6.647  22.411  17.251
0.0372 5.085  22.906  18.045
-0.6497 4.897  21.335  16.944
0.4215 4.865  21.862  16.110
0.0372 -0.545  27.330  13.524
0.1166 -0.191  26.467  12.963
0.0372 -0.574  25.554  13.436
0.0372 0.867  26.331  12.922
-0.6497 -0.733  26.452  11.625
0.4215 -1.013  25.577  11.369
0.0372 6.597  30.672   6.145
0.1166 6.527  29.905   5.431
0.0372 6.897  30.252   4.514
0.0372 5.488  29.661   5.286
-0.6497 7.345  28.783   5.750
0.4215 7.406  28.205   4.953
0.0372 12.596  23.996  -6.320
0.1166 12.366  24.994  -5.919
0.0372 11.376  24.940  -5.387
0.0372 12.399  25.745  -6.709
-0.6497 13.348  25.170  -4.931
0.4215 13.044  25.800  -4.308
0.0372 2.786  25.009 -14.633
0.1166 3.585  24.220 -14.728
0.0372 3.692  23.743 -15.720
0.0372 3.252  23.417 -14.073
-0.6497 4.766  24.793 -14.217
0.4215 4.595  25.030 -13.308
0.0372 -3.427  20.385 -22.011
0.1166 -2.923  20.837 -21.175
0.0372 -3.442  21.724 -20.710
0.0372 -1.916  21.083 -21.639
-0.6497 -2.720  19.865 -20.180
0.4215 -1.773  19.753 -19.940
0.0372 -3.168  14.679 -19.053
0.1166 -2.234  15.333 -19.016
0.0372 -2.201  16.233 -19.652
0.0372 -1.299  14.693 -19.102
-0.6497 -2.214  15.564 -17.630
0.4215 -2.862  16.328 -17.525
0.0372 0.686  18.343 -17.848
0.1166 0.108  18.495 -18.754
0.0372 -0.878  17.997 -18.679
0.0372 0.529  18.129 -19.646
-0.6497 -0.141  19.927 -18.878
0.4215 0.740  20.360 -18.983
0.0372 11.890  21.139  -9.231
0.1166 12.836  21.288  -8.788
0.0372 13.664  20.796  -9.324
0.0372 12.860  20.966  -7.745
-0.6497 13.102  22.674  -8.798
0.4215 14.083  22.668  -8.577
0.0372 3.013  24.738   8.363
0.1166 2.165  24.167   8.735
0.0372 1.218  24.658   8.591
0.0372 2.242  23.975   9.822
-0.6497 2.053  22.887   8.182
0.4215 2.909  22.375   8.140
0.0372 19.723  20.096  -1.464
0.1166 20.675  20.466  -1.007
0.0372 20.626  20.621   0.119
0.0372 20.823  21.430  -1.531
-0.6497 21.680  19.595  -1.432
0.4215 21.512  19.375  -2.409
0.0372 5.576  19.811 -10.258
0.1166 4.579  19.716  -9.821
0.0372 4.636  19.995  -8.729
0.0372 4.285  18.679  -9.939
-0.6497 3.694  20.565 -10.521
0.4215 3.316  21.211  -9.890
0.0372 3.676  17.255 -17.145
0.1166 3.662  17.882 -16.197
0.0372 3.140  17.444 -15.452
0.0372 3.139  18.827 -16.443
-0.6497 4.981  18.022 -15.689
0.4215 5.098  18.519 -14.837
0.0372 8.446  19.447 -17.761
0.1166 7.549  20.056 -18.086
0.0372 7.725  20.761 -18.922
0.0372 7.299  20.614 -17.223
-0.6497 6.544  19.125 -18.473
0.4215 6.212  18.690 -17.609
0.0372 2.723  17.515 -12.569
0.1166 2.012  18.345 -12.551
0.0372 2.056  18.992 -11.664
0.0372 1.119  17.775 -12.380
-0.6497 1.826  19.033 -13.760
0.4215 2.539  19.738 -13.658
0.0372 2.336  22.765  -6.423
0.1166 3.020  21.979  -6.742
0.0372 2.791  21.142  -6.039
0.0372 4.033  22.247  -6.835
-0.6497 2.624  21.405  -7.976
0.4215 1.853  20.897  -7.819
0.0372 2.202  23.502 -19.071
0.1166 1.722  22.614 -19.527
0.0372 1.888  22.493 -20.594
0.0372 0.594  22.777 -19.349
-0.6497 2.136  21.436 -18.806
0.4215 3.112  21.274 -18.929
0.0372 2.953  13.781  -7.818
0.1166 3.507  12.862  -7.812
0.0372 3.397  12.363  -8.819
0.0372 3.117  12.142  -7.102
-0.6497 4.900  13.121  -7.548
0.4215 5.259  12.300  -7.181
0.0372 7.743  16.512 -16.699
0.1166 8.423  16.030 -16.076
0.0372 9.391  16.594 -15.989
0.0372 8.516  14.983 -16.434
-0.6497 7.839  15.936 -14.774
0.4215 7.576  16.819 -14.437
0.0372 7.293  21.004 -23.035
0.1166 7.144  20.113 -23.648
0.0372 7.025  19.209 -23.055
0.0372 7.994  19.946 -24.222
-0.6497 6.096  20.221 -24.549
0.4215 6.111  21.017 -25.157
0.0372 5.558  16.812 -12.763
0.1166 5.924  17.829 -12.606
0.0372 6.305  17.974 -11.659
0.0372 5.000  18.429 -12.724
-0.6497 6.958  18.228 -13.484
0.4215 7.435  19.031 -13.107
0.0372 19.402  17.763  -3.553
0.1166 20.502  17.873  -3.777
0.0372 20.728  17.280  -4.589
0.0372 21.050  17.479  -2.953
-0.6497 20.860  19.166  -4.105
0.4215 20.589  19.245  -5.039
0.0372 8.893  14.789  -2.574
0.1166 7.840  14.392  -2.445
0.0372 7.733  13.784  -1.538
0.0372 7.480  13.750  -3.226
-0.6497 6.994  15.559  -2.334
0.4215 6.777  15.860  -3.190
0.0372 15.473  22.948  -2.239
0.1166 15.037  23.913  -2.353
0.0372 14.064  23.946  -2.926
0.0372 15.714  24.449  -2.993
-0.6497 14.863  24.545  -1.107
0.4215 14.599  23.873  -0.408
0.0372 9.649  24.756 -12.508
0.1166 9.411  24.002 -11.778
0.0372 10.320  23.326 -11.803
0.0372 8.470  23.531 -11.963
-0.6497 9.351  24.694 -10.547
0.4215 10.241  24.890 -10.411
0.0372 1.522  15.499 -16.642
0.1166 1.203  14.889 -15.871
0.0372 1.149  15.299 -14.839
0.0372 1.777  13.996 -15.910
-0.6497 -0.072  14.466 -16.219
0.4215 -0.792  15.110 -16.372
0.0372 6.220  12.606 -16.691
0.1166 5.729  12.928 -15.775
0.0372 5.213  12.057 -15.260
0.0372 4.976  13.710 -16.049
-0.6497 6.932  13.288 -15.129
0.4215 7.107  14.249 -15.032
0.0372 7.316  26.447 -13.852
0.1166 7.741  26.083 -14.766
0.0372 8.815  26.131 -14.893
0.0372 7.401  26.636 -15.609
-0.6497 7.351  24.700 -14.968
0.4215 6.380  24.682 -14.942
0.0372 16.582  17.589   1.828
0.1166 16.709  18.663   1.996
0.0372 16.682  18.710   3.081
0.0372 15.880  19.147   1.536
-0.6497 17.956  19.201   1.467
0.4215 18.593  18.479   1.529
0.0372 8.734  25.284 -18.699
0.1166 7.920  24.583 -18.646
0.0372 8.038  23.926 -19.549
0.0372 7.005  25.162 -18.614
-0.6497 7.974  23.781 -17.520
0.4215 7.983  24.278 -16.680
0.0372 3.114  12.550 -12.791
0.1166 3.785  12.979 -12.073
0.0372 4.268  12.153 -11.480
0.0372 3.166  13.631 -11.403
-0.6497 4.735  13.852 -12.589
0.4215 5.339  13.503 -13.284
0.0372 -3.291  18.424 -14.731
0.1166 -2.196  18.437 -14.950
0.0372 -1.996  18.764 -15.946
0.0372 -1.788  17.441 -14.963
-0.6497 -1.584  19.375 -14.062
0.4215 -1.879  18.951 -13.185
0.0372 16.553  20.263  -4.064
0.1166 17.217  19.418  -3.810
0.0372 17.806  19.726  -2.906
0.0372 17.960  19.349  -4.579
-0.6497 16.580  18.167  -3.599
0.4215 16.829  17.912  -2.750
0.0372 3.154  27.066 -10.858
0.1166 3.377  25.986 -10.834
0.0372 2.587  25.365 -11.221
0.0372 3.571  25.651  -9.778
-0.6497 4.402  25.838 -11.694
0.4215 5.221  25.697 -11.132
0.0372 5.262  13.264 -24.175
0.1166 5.884  13.163 -23.341
0.0372 5.202  12.820 -22.534
0.0372 6.291  14.132 -23.113
-0.6497 6.823  12.159 -23.565
0.4215 7.688  12.383 -23.910
0.0372 6.061  20.779   7.596
0.1166 5.336  21.043   8.342
0.0372 5.725  21.435   9.300
0.0372 4.732  20.162   8.581
-0.6497 4.502  22.001   7.772
0.4215 5.050  22.717   7.403
0.0372 13.695  25.945  -9.092
0.1166 13.072  25.993  -9.989
0.0372 13.645  25.845 -10.969
0.0372 12.649  27.041 -10.095
-0.6497 12.000  25.115  -9.798
0.4215 12.365  24.154  -9.678
0.0372 20.269  18.464  -8.420
0.1166 20.628  18.509  -7.374
0.0372 21.680  18.811  -7.287
0.0372 20.573  17.497  -6.957
-0.6497 19.850  19.420  -6.614
0.4215 19.144  19.768  -7.170
0.0372 28.183   6.707  12.500
0.1166 27.893   6.018  13.271
0.0372 28.675   6.078  13.949
0.0372 27.853   5.075  12.696
-0.6497 26.662   6.215  13.866
0.4215 26.509   5.616  14.554
0.0372 12.788  -3.666  26.039
0.1166 12.941  -2.790  25.465
0.0372 13.105  -3.008  24.426
0.0372 13.772  -2.277  25.793
-0.6497 11.789  -1.961  25.579
0.4215 11.493  -1.690  24.710
0.0372 5.313  -3.818  19.874
0.1166 4.566  -3.008  19.506
0.0372 4.088  -3.382  18.595
0.0372 5.146  -2.082  19.418
-0.6497 3.466  -2.948  20.434
0.4215 2.618  -2.851  19.892
0.0372 4.925   8.072  27.828
0.1166 4.251   7.473  27.119
0.0372 4.121   8.097  26.243
0.0372 3.235   7.381  27.473
-0.6497 4.750   6.177  26.846
0.4215 5.411   5.918  27.523
0.0372 4.962  13.738  28.142
0.1166 5.627  14.539  27.694
0.0372 6.587  14.053  27.670
0.0372 5.644  15.444  28.303
-0.6497 5.248  14.847  26.408
0.4215 5.865  14.348  25.876
0.0372 17.449   5.902  22.028
0.1166 17.028   4.915  22.093
0.0372 17.243   4.453  22.981
0.0372 17.414   4.275  21.346
-0.6497 15.637   4.993  21.957
0.4215 15.241   4.612  22.792
0.0372 13.003   4.100  18.809
0.1166 13.850   3.678  19.334
0.0372 14.430   4.359  19.864
0.0372 14.367   3.123  18.520
-0.6497 13.388   2.725  20.285
0.4215 12.602   2.254  19.950
0.0372 7.623  11.801  19.456
0.1166 8.297  12.216  20.141
0.0372 7.706  12.611  20.934
0.0372 8.935  12.883  19.548
-0.6497 9.059  11.156  20.699
0.4215 9.204  10.409  20.087
0.0372 4.009  19.504  19.985
0.1166 4.667  18.815  19.364
0.0372 4.818  17.845  19.907
0.0372 5.737  19.224  19.323
-0.6497 4.193  18.635  18.082
0.4215 4.207  19.455  17.560
0.0372 13.075  24.450   9.281
0.1166 13.456  25.095  10.082
0.0372 13.025  26.073   9.874
0.0372 14.514  25.168  10.099
-0.6497 13.040  24.763  11.378
0.4215 13.658  24.094  11.771
0.0372 15.781   8.557  24.166
0.1166 15.723   7.537  24.490
0.0372 15.912   7.570  25.571
0.0372 16.480   6.963  23.901
-0.6497 14.496   6.920  24.134
0.4215 14.574   6.026  24.511
0.0372 8.648   8.476  21.103
0.1166 8.833   7.884  20.160
0.0372 7.920   7.382  19.950
0.0372 9.634   7.135  20.270
-0.6497 9.160   8.702  19.109
0.4215 8.399   9.025  18.613
0.0372 8.737   5.928  24.133
0.1166 8.113   6.687  24.546
0.0372 7.406   6.258  25.277
0.0372 7.633   7.262  23.795
-0.6497 8.929   7.504  25.255
0.4215 9.744   7.583  24.732
0.0372 7.868  13.765  23.224
0.1166 7.342  14.301  24.037
0.0372 6.500  14.879  23.587
0.0372 8.043  14.978  24.395
-0.6497 6.938  13.332  25.031
0.4215 7.166  12.489  24.638
0.0372 9.289  10.527  25.466
0.1166 8.931  10.737  26.499
0.0372 8.268  11.607  26.482
0.0372 9.782  11.031  27.142
-0.6497 8.208   9.640  27.089
0.4215 8.544   8.796  26.658
0.0372 -0.836  15.008  24.803
0.1166 -1.520  14.851  23.909
0.0372 -2.457  15.400  23.848
0.0372 -1.875  13.797  23.905
-0.6497 -0.837  15.092  22.680
0.4215 -1.463  15.394  22.064
0.0372 5.131   2.980  23.657
0.1166 5.430   3.774  24.324
0.0372 6.238   4.145  23.710
0.0372 5.732   3.506  25.327
-0.6497 4.403   4.753  24.443
0.4215 4.570   5.363  25.231
0.0372 8.024  -0.603  30.411
0.1166 7.514  -0.235  29.488
0.0372 7.984   0.655  29.055
0.0372 6.455  -0.004  29.634
-0.6497 7.628  -1.382  28.673
0.4215 8.577  -1.659  28.460
0.0372 -1.050   2.971  32.049
0.1166 -1.157   3.246  30.990
0.0372 -0.907   4.242  30.807
0.0372 -2.207   3.180  30.670
-0.6497 -0.421   2.427  30.142
0.4215 -0.049   2.958  29.414
0.0372 1.413  -2.273  28.585
0.1166 1.296  -1.710  27.670
0.0372 0.258  -1.962  27.436
0.0372 2.066  -1.965  26.907
-0.6497 1.512  -0.382  28.053
0.4215 1.147  -0.359  28.989
0.0372 0.776  -0.287  32.608
0.1166 1.269  -0.267  31.642
0.0372 1.814  -1.300  31.564
0.0372 1.933   0.633  31.491
-0.6497 0.356  -0.235  30.546
0.4215 -0.008   0.705  30.569
0.0372 -1.939  -3.594  27.834
0.1166 -2.132  -4.646  27.711
0.0372 -1.470  -5.137  27.125
0.0372 -3.106  -4.612  27.188
-0.6497 -2.212  -5.280  29.030
0.4215 -1.428  -4.982  29.533
0.0372 2.182   3.482  21.205
0.1166 2.982   4.224  21.244
0.0372 3.659   3.956  20.405
0.0372 3.423   4.111  22.259
-0.6497 2.539   5.548  20.986
0.4215 2.316   5.987  21.848
0.0372 3.013   1.224  19.049
0.1166 3.571   1.059  18.127
0.0372 4.600   1.134  18.410
0.0372 3.192   1.792  17.450
-0.6497 3.245  -0.219  17.516
0.4215 2.365  -0.233  17.147
0.0372 0.149  24.066  22.361
0.1166 -0.489  23.195  22.528
0.0372 -1.421  23.444  22.017
0.0372 -0.570  23.034  23.579
-0.6497 0.116  22.133  21.825
0.4215 -0.281  21.301  22.170
0.0372 12.292   0.588  14.830
0.1166 11.896  -0.122  14.102
0.0372 12.623  -0.824  13.676
0.0372 11.327   0.308  13.303
-0.6497 10.978  -0.910  14.771
0.4215 10.127  -0.508  15.036
0.0372 6.723   6.590  21.477
0.1166 6.669   5.536  21.246
0.0372 6.622   5.511  20.108
0.0372 5.845   4.962  21.638
-0.6497 7.903   5.018  21.653
0.4215 7.956   4.012  21.545
0.0372 12.391   7.411  26.672
0.1166 12.086   8.179  25.946
0.0372 12.820   8.976  25.823
0.0372 11.239   8.715  26.501
-0.6497 11.606   7.768  24.656
0.4215 12.440   7.472  24.232
0.0372 11.980   8.374  21.525
0.1166 12.924   8.898  21.714
0.0372 12.865   9.171  22.764
0.0372 12.955   9.753  21.111
-0.6497 14.073   8.084  21.504
0.4215 14.101   7.437  22.208
0.0372 18.016  26.138   6.190
0.1166 17.068  25.716   6.143
0.0372 17.108  24.882   5.498
0.0372 16.275  26.400   5.785
-0.6497 16.824  25.246   7.440
0.4215 17.284  24.385   7.643
0.0372 -2.422  19.897  23.685
0.1166 -1.970  19.142  23.061
0.0372 -2.685  18.837  22.330
0.0372 -1.631  18.312  23.659
-0.6497 -0.800  19.660  22.437
0.4215 -0.203  18.893  22.361
0.0372 2.355   7.103  25.143
0.1166 1.481   7.345  24.462
0.0372 1.166   8.443  24.579
0.0372 0.640   6.703  24.647
-0.6497 1.918   7.235  23.153
0.4215 1.595   7.914  22.596
0.0372 8.796  12.466  16.694
0.1166 7.992  12.391  15.961
0.0372 7.048  12.162  16.550
0.0372 8.102  11.592  15.374
-0.6497 7.957  13.627  15.260
0.4215 8.134  14.400  15.917
0.0372 6.193   5.208  30.385
0.1166 7.161   5.119  29.844
0.0372 7.680   4.115  29.848
0.0372 7.879   5.759  30.375
-0.6497 6.907   5.567  28.526
0.4215 7.741   5.418  28.112
0.0372 21.851   7.830  23.544
0.1166 21.630   6.970  22.938
0.0372 20.902   6.345  23.476
0.0372 22.585   6.395  22.764
-0.6497 21.092   7.396  21.673
0.4215 21.012   8.374  21.752
0.0372 9.368   0.712  21.725
0.1166 9.281   1.782  21.673
0.0372 9.726   2.293  20.841
0.0372 9.848   2.128  22.556
-0.6497 7.928   2.262  21.874
0.4215 7.359   1.424  22.065
0.0372 5.542   1.301  20.870
0.1166 5.510   0.299  21.260
0.0372 5.913  -0.340  20.549
0.0372 4.501  -0.042  21.501
-0.6497 6.281   0.117  22.347
0.4215 5.922  -0.544  22.950
0.0372 12.814  21.803  19.432
0.1166 12.623  20.906  20.034
0.0372 12.163  21.245  20.979
0.0372 13.568  20.380  20.113
-0.6497 11.632  20.054  19.456
0.4215 11.897  19.778  18.560
0.0372 10.200  17.114  20.876
0.1166 10.155  16.844  21.957
0.0372 10.438  17.731  22.625
0.0372 10.802  15.965  22.175
-0.6497 8.806  16.478  22.203
0.4215 8.433  17.310  22.517
0.0372 8.666   5.735  18.361
0.1166 9.634   5.500  17.877
0.0372 10.169   4.917  18.702
0.0372 10.214   6.432  17.619
-0.6497 9.466   4.690  16.690
0.4215 10.309   4.618  16.200
0.0372 3.514  12.186  19.643
0.1166 4.097  11.817  18.836
0.0372 3.338  11.213  18.322
0.0372 4.908  11.214  19.260
-0.6497 4.628  12.851  17.981
0.4215 3.937  13.225  17.400
0.0372 15.479  10.577  16.036
0.1166 14.611  10.293  15.474
0.0372 14.182  11.256  15.120
0.0372 13.945   9.771  16.132
-0.6497 14.985   9.506  14.402
0.4215 15.565  10.051  13.796
0.0372 19.806   7.672  11.072
0.1166 20.038   7.777  12.167
0.0372 20.932   7.319  12.505
0.0372 19.208   7.361  12.612
-0.6497 20.052   9.121  12.634
0.4215 20.210   9.039  13.569
0.0372 16.861  11.037   8.745
0.1166 17.055  10.672   9.757
0.0372 16.082  10.276   9.975
0.0372 17.332  11.492  10.391
-0.6497 18.080   9.677   9.765
0.4215 17.861   9.018   9.091
0.0372 5.870   3.795  15.998
0.1166 5.934   4.743  15.472
0.0372 6.947   5.131  15.617
0.0372 5.245   5.548  15.845
-0.6497 5.685   4.433  14.137
0.4215 6.324   3.769  13.888
0.0372 13.561   3.408  26.124
0.1166 14.230   4.247  26.004
0.0372 15.050   4.331  26.699
0.0372 13.552   5.072  26.144
-0.6497 14.752   4.308  24.729
0.4215 15.287   3.464  24.694
0.0372 13.458   2.715   8.345
0.1166 13.687   1.682   7.918
0.0372 14.564   1.250   8.278
0.0372 13.621   1.650   6.857
-0.6497 12.600   0.936   8.345
0.4215 12.780  -0.063   8.447
0.0372 16.354   2.570   7.676
0.1166 16.252   3.530   7.088
0.0372 15.521   3.611   6.326
0.0372 17.293   3.551   6.719
-0.6497 15.999   4.631   7.955
0.4215 16.144   5.431   7.492
0.0372 -0.488   5.993   9.100
0.1166 -0.947   5.038   8.858
0.0372 -1.041   4.842   7.876
0.0372 -1.925   5.029   9.211
-0.6497 -0.236   3.994   9.575
0.4215 0.692   4.080   9.317
0.0372 13.598  20.061  11.691
0.1166 12.769  19.557  11.157
0.0372 11.804  20.051  11.529
0.0372 12.755  18.507  11.447
-0.6497 12.821  19.585   9.754
0.4215 12.233  20.362   9.474
0.0372 17.134   1.936   2.943
0.1166 16.981   1.688   4.007
0.0372 17.509   2.500   4.538
0.0372 17.374   0.733   4.225
-0.6497 15.654   1.632   4.370
0.4215 15.377   0.690   4.403
0.0372 2.797  16.433  12.404
0.1166 3.065  15.399  12.635
0.0372 3.037  15.114  13.691
0.0372 4.036  15.276  12.237
-0.6497 2.212  14.502  11.984
0.4215 1.332  14.537  12.399
0.0372 5.307  -5.046   6.457
0.1166 4.653  -4.429   7.055
0.0372 5.099  -4.342   8.038
0.0372 3.614  -4.824   6.980
-0.6497 4.667  -3.173   6.301
0.4215 5.595  -2.968   5.936
0.0372 7.731  20.115  15.790
0.1166 8.548  19.344  15.878
0.0372 8.415  18.597  15.148
0.0372 8.477  18.976  16.913
-0.6497 9.780  19.969  15.679
0.4215 9.815  20.211  14.756
0.0372 8.458  15.673  19.098
0.1166 8.174  15.946  18.092
0.0372 8.254  17.047  17.996
0.0372 7.168  15.619  17.972
-0.6497 8.927  15.413  17.077
0.4215 9.718  15.027  17.515
0.0372 9.645  -0.969   8.661
0.1166 8.625  -1.331   8.457
0.0372 8.458  -2.359   8.763
0.0372 8.545  -1.198   7.333
-0.6497 7.698  -0.523   9.136
0.4215 7.611  -0.785  10.085
0.0372 5.083   8.722  20.172
0.1166 4.193   8.228  19.651
0.0372 4.250   7.199  20.063
0.0372 4.255   8.289  18.560
-0.6497 3.076   8.980  20.148
0.4215 2.223   8.630  19.875
0.0372 9.579  27.038   5.271
0.1166 9.151  26.585   4.384
0.0372 8.638  25.701   4.660
0.0372 10.053  26.230   3.956
-0.6497 8.491  27.408   3.458
0.4215 8.020  26.886   2.833
0.0372 16.111  12.523   1.763
0.1166 15.860  12.154   2.755
0.0372 14.815  12.417   3.010
0.0372 16.351  12.766   3.533
-0.6497 16.247  10.766   2.844
0.4215 15.656  10.177   2.387
0.0372 19.375  10.431  -0.060
0.1166 18.494  10.702   0.592
0.0372 17.536  10.592   0.103
0.0372 18.666  11.702   0.721
-0.6497 18.735  10.198   1.881
0.4215 17.896  10.157   2.403
0.0372 17.874   8.401  16.148
0.1166 18.819   8.961  16.168
0.0372 19.368   8.942  17.104
0.0372 18.577   9.983  15.898
-0.6497 19.778   8.554  15.194
0.4215 20.231   7.736  15.425
0.0372 8.217   1.678  19.253
0.1166 7.524   2.378  18.812
0.0372 7.673   3.365  19.213
0.0372 6.491   1.977  18.893
-0.6497 7.788   2.472  17.445
0.4215 8.350   3.251  17.262
0.0372 11.962   3.607  22.443
0.1166 11.590   4.470  22.052
0.0372 11.412   4.155  20.990
0.0372 12.238   5.376  22.146
-0.6497 10.432   4.792  22.728
0.4215 9.884   5.158  22.030
0.0372 5.044   0.450  14.999
0.1166 5.364  -0.595  14.759
0.0372 4.581  -1.374  15.114
0.0372 6.331  -0.749  15.204
-0.6497 5.499  -0.699  13.349
0.4215 4.562  -0.687  12.980
0.0372 12.627  16.719   8.906
0.1166 13.073  16.869   7.962
0.0372 12.313  16.978   7.192
0.0372 13.635  15.990   7.734
-0.6497 13.866  18.004   8.036
0.4215 13.421  18.532   8.776
0.0372 1.476  32.008   3.429
0.1166 1.943  31.151   3.017
0.0372 2.352  31.520   2.128
0.0372 1.302  30.339   2.837
-0.6497 3.060  30.699   3.815
0.4215 3.745  30.291   3.266
0.0372 17.230   7.004  14.844
0.1166 17.122   5.930  14.542
0.0372 18.046   5.475  14.760
0.0372 16.757   5.790  13.570
-0.6497 16.155   5.184  15.210
0.4215 15.350   5.633  15.496
0.0372 15.291   7.868   1.863
0.1166 14.865   6.859   1.861
0.0372 14.766   6.402   0.899
0.0372 13.840   6.989   2.251
-0.6497 15.675   6.021   2.702
0.4215 15.250   5.145   2.719
0.0372 0.619   0.939  14.192
0.1166 1.143   1.210  15.053
0.0372 0.909   2.260  15.207
0.0372 2.196   1.015  14.868
-0.6497 0.804   0.483  16.193
0.4215 -0.142   0.555  16.343
0.0372 25.513   6.052  18.321
0.1166 24.454   6.352  18.343
0.0372 24.386   7.119  17.587
0.0372 24.343   6.712  19.338
-0.6497 23.668   5.221  18.060
0.4215 22.803   5.192  18.574
0.0372 29.534   6.476   2.168
0.1166 28.827   7.099   1.598
0.0372 28.320   6.512   0.927
0.0372 29.467   7.846   1.180
-0.6497 27.995   7.862   2.494
0.4215 27.131   8.023   1.996
0.0372 11.902  11.592  19.081
0.1166 11.657  10.973  18.195
0.0372 10.539  10.781  18.211
0.0372 12.067   9.947  18.414
-0.6497 12.121  11.726  17.096
0.4215 11.636  11.574  16.267
0.0372 10.251  28.990   8.742
0.1166 9.269  29.390   8.477
0.0372 9.307  29.704   7.402
0.0372 8.862  30.311   8.896
-0.6497 8.396  28.361   8.554
0.4215 7.795  28.382   7.792
0.0372 7.064   6.557  13.030
0.1166 8.025   7.102  12.957
0.0372 8.191   8.032  13.534
0.0372 8.075   7.205  11.876
-0.6497 9.153   6.197  13.243
0.4215 9.346   5.644  12.478
0.0372 11.311  13.527  13.298
0.1166 11.760  13.178  14.246
0.0372 11.333  13.935  14.978
0.0372 12.801  13.312  14.094
-0.6497 11.492  11.845  14.399
0.4215 11.766  11.471  13.566
0.0372 13.664   9.860  12.443
0.1166 13.512  10.722  11.759
0.0372 13.615  10.408  10.699
0.0372 14.143  11.583  11.902
-0.6497 12.197  11.230  11.783
0.4215 12.140  11.966  11.156
0.0372 16.614  13.466  13.899
0.1166 15.801  12.883  13.413
0.0372 15.360  13.447  12.577
0.0372 14.988  12.692  14.119
-0.6497 16.272  11.720  13.038
0.4215 17.215  11.780  12.797
0.0372 4.365   1.964  10.496
0.1166 5.129   2.296  11.179
0.0372 6.134   1.887  10.830
0.0372 4.856   1.940  12.167
-0.6497 5.152   3.734  11.240
0.4215 5.789   3.940  11.959
0.0372 13.889   7.622  17.330
0.1166 13.583   6.626  17.121
0.0372 12.581   6.397  17.558
0.0372 14.246   5.927  17.625
-0.6497 13.760   6.393  15.720
0.4215 13.091   6.918  15.201
0.0372 9.853  13.461  23.640
0.1166 10.736  12.899  23.224
0.0372 11.592  13.063  23.882
0.0372 11.010  13.439  22.256
-0.6497 10.402  11.555  23.020
0.4215 9.876  11.540  22.241
0.0372 14.002  14.672  16.283
0.1166 14.824  15.329  16.520
0.0372 15.285  14.884  17.396
0.0372 14.542  16.337  16.717
-0.6497 15.618  15.444  15.337
0.4215 16.476  15.382  15.639
0.0372 13.321  16.435  13.328
0.1166 13.558  15.737  12.505
0.0372 13.742  14.851  13.077
0.0372 14.470  16.067  11.956
-0.6497 12.531  15.606  11.594
0.4215 11.715  15.873  12.027
0.0372 15.317  11.692  24.707
0.1166 14.605  10.852  24.616
0.0372 14.955  10.158  25.356
0.0372 14.474  10.372  23.670
-0.6497 13.321  11.347  25.024
0.4215 12.788  11.691  24.351
0.0372 5.775   7.667  16.668
0.1166 6.669   7.877  17.204
0.0372 7.590   7.493  16.686
0.0372 6.577   7.326  18.094
-0.6497 6.759   9.300  17.461
0.4215 6.385   9.711  16.598
0.0372 5.665   8.112  10.452
0.1166 5.007   8.369  11.320
0.0372 4.815   7.542  11.985
0.0372 4.077   8.728  10.833
-0.6497 5.556   9.412  12.123
0.4215 6.507   9.465  11.989
0.0372 -0.559   4.800   5.051
0.1166 0.425   5.010   4.854
0.0372 0.626   6.106   4.986
0.0372 0.692   4.633   3.842
-0.6497 1.133   4.362   5.875
0.4215 0.615   3.552   6.098
0.0372 21.668  16.735   2.739
0.1166 22.188  16.170   3.509
0.0372 21.544  15.877   4.322
0.0372 23.045  16.756   3.894
-0.6497 22.751  14.956   2.924
0.4215 23.721  15.023   2.928
0.0372 15.409  12.083  20.048
0.1166 15.463  11.057  19.867
0.0372 16.271  10.767  19.173
0.0372 14.423  10.800  19.552
-0.6497 15.755  10.435  21.116
0.4215 15.231   9.608  21.261
0.0372 10.033  25.194   7.170
0.1166 11.019  25.207   6.856
0.0372 11.550  25.726   7.666
0.0372 11.170  25.746   5.885
-0.6497 11.625  23.897   6.689
0.4215 12.644  24.021   6.692
0.0372 -0.831  13.452  16.829
0.1166 -1.779  12.979  16.600
0.0372 -1.667  12.217  15.880
0.0372 -2.329  13.731  16.003
-0.6497 -2.499  12.534  17.670
0.4215 -1.865  11.887  18.150
0.0372 -1.810   1.415  18.703
0.1166 -1.873   0.346  18.378
0.0372 -2.727  -0.073  18.893
0.0372 -0.991  -0.161  18.626
-0.6497 -2.001   0.255  17.034
0.4215 -1.971  -0.737  16.717
0.0372 6.361  -8.740   7.551
0.1166 6.090  -7.670   7.438
0.0372 5.354  -7.238   8.169
0.0372 5.838  -7.455   6.392
-0.6497 7.297  -7.042   7.606
0.4215 7.543  -6.905   8.514
0.0372 12.515   0.570   3.176
0.1166 11.546   1.010   2.916
0.0372 11.478   1.205   1.883
0.0372 11.383   1.983   3.358
-0.6497 10.568   0.137   3.329
0.4215 10.695  -0.497   2.655
0.0372 19.751   4.450  18.798
0.1166 20.183   4.746  19.790
0.0372 20.609   3.970  20.412
0.0372 19.473   5.284  20.457
-0.6497 21.327   5.617  19.504
0.4215 21.366   6.208  20.286
0.0372 9.431  -3.880   0.310
0.1166 10.064  -3.619   1.158
0.0372 10.951  -4.231   1.122
0.0372 9.619  -3.933   2.100
-0.6497 10.429  -2.297   1.183
0.4215 10.463  -2.039   0.293
0.0372 16.965  18.285   9.953
0.1166 16.265  18.094  10.792
0.0372 15.925  17.096  10.641
0.0372 15.459  18.850  10.697
-0.6497 17.059  18.174  11.947
0.4215 16.498  18.205  12.720
0.0372 15.459  -1.061  12.184
0.1166 15.788  -1.974  12.613
0.0372 16.633  -1.851  13.189
0.0372 16.201  -2.588  11.782
-0.6497 14.866  -2.632  13.485
0.4215 14.413  -3.378  13.036
0.0372 12.251   3.060  13.871
0.1166 11.512   3.671  14.419
0.0372 10.660   3.065  14.698
0.0372 11.226   4.614  13.937
-0.6497 12.063   4.089  15.608
0.4215 12.790   4.745  15.476
0.0372 6.257  14.391  11.220
0.1166 6.655  13.920  12.097
0.0372 6.916  12.889  11.791
0.0372 5.866  13.770  12.777
-0.6497 7.624  14.722  12.810
0.4215 7.822  14.144  13.596
0.0372 17.087  13.932   9.404
0.1166 16.036  13.841   9.075
0.0372 15.478  14.732   9.117
0.0372 15.550  13.135   9.797
-0.6497 16.050  13.207   7.829
0.4215 15.269  12.643   7.753
0.0372 -1.870   0.870   9.807
0.1166 -2.623   1.583   9.989
0.0372 -3.479   1.120  10.489
0.0372 -2.887   2.225   9.085
-0.6497 -2.237   2.648  10.926
0.4215 -1.431   3.091  10.571
0.0372 7.647   4.972  10.747
0.1166 7.522   5.274   9.757
0.0372 6.520   5.678   9.709
0.0372 7.421   4.453   9.067
-0.6497 8.495   6.231   9.284
0.4215 9.305   5.734   9.046
0.0372 12.342   1.550  17.157
0.1166 11.405   1.579  17.755
0.0372 10.681   1.049  17.205
0.0372 11.003   2.566  17.945
-0.6497 11.489   1.000  19.072
0.4215 11.922   0.180  18.846
0.0372 9.040  -0.216  18.018
0.1166 8.526  -0.676  17.107
0.0372 7.505  -0.594  17.358
0.0372 8.759  -1.647  16.817
-0.6497 8.693   0.216  16.039
0.4215 8.101   0.937  16.337
0.0372 18.777  14.930  13.420
0.1166 18.837  15.138  12.319
0.0372 19.928  15.150  12.082
0.0372 18.387  16.080  12.007
-0.6497 18.131  14.068  11.691
0.4215 18.497  13.222  12.073
0.0372 11.091   9.421  14.009
0.1166 11.236   8.562  14.728
0.0372 10.419   8.496  15.411
0.0372 12.112   8.819  15.337
-0.6497 11.496   7.387  14.082
0.4215 10.652   7.055  13.697
0.0372 20.011  20.323  12.396
0.1166 19.692  19.685  13.244
0.0372 18.643  20.024  13.414
0.0372 20.298  19.972  14.150
-0.6497 19.727  18.326  13.026
0.4215 18.948  18.084  12.510
0.0372 5.093  17.504  12.840
0.1166 5.937  17.856  13.409
0.0372 5.981  17.352  14.384
0.0372 6.020  18.943  13.479
-0.6497 7.072  17.416  12.724
0.4215 7.149  16.403  12.771
0.0372 23.429  15.553  13.954
0.1166 22.750  16.195  13.409
0.0372 22.624  15.960  12.358
0.0372 23.133  17.213  13.502
-0.6497 21.486  16.184  13.960
0.4215 21.000  16.935  13.595
0.0372 20.133  15.808   9.002
0.1166 19.865  16.766   9.401
0.0372 20.358  16.790  10.403
0.0372 18.707  16.772   9.588
-0.6497 20.194  17.835   8.493
0.4215 21.149  17.875   8.323
0.0372 2.112   3.168   9.790
0.1166 2.725   3.705   9.037
0.0372 2.112   4.033   8.153
0.0372 3.489   2.983   8.792
-0.6497 3.243   4.888   9.607
0.4215 3.861   4.627  10.322
0.0372 1.386  -0.377  11.316
0.1166 2.163   0.328  11.696
0.0372 1.643   1.221  12.131
0.0372 2.894   0.664  10.972
-0.6497 2.845  -0.295  12.759
0.4215 2.160  -0.917  13.160
0.0372 21.942   5.109   9.176
0.1166 20.937   4.989   9.489
0.0372 20.439   5.917   9.125
0.0372 20.855   4.855  10.575
-0.6497 20.155   3.968   8.807
0.4215 19.325   3.865   9.337
0.0372 24.809  19.584   0.662
0.1166 24.182  18.687   0.827
0.0372 24.578  17.930   0.154
0.0372 23.162  18.889   0.469
-0.6497 24.287  18.459   2.264
0.4215 23.749  19.177   2.702
0.0372 12.753   4.794   0.446
0.1166 13.145   3.814   0.669
0.0372 12.767   3.442   1.642
0.0372 14.195   4.016   0.678
-0.6497 12.718   2.849  -0.298
0.4215 13.223   2.033  -0.215
0.0372 20.449  17.618  15.993
0.1166 19.406  17.454  16.236
0.0372 18.932  18.326  16.600
0.0372 19.429  16.822  17.052
-0.6497 18.591  16.851  15.254
0.4215 18.466  17.509  14.566
0.0372 12.036  -1.940  19.667
0.1166 12.963  -2.047  19.067
0.0372 12.920  -3.047  18.659
0.0372 13.835  -1.714  19.636
-0.6497 12.705  -1.272  18.001
0.4215 13.432  -1.392  17.333
0.0372 17.502  22.234  10.416
0.1166 17.762  23.083   9.724
0.0372 18.536  23.835  10.067
0.0372 16.882  23.636   9.737
-0.6497 18.077  22.810   8.397
0.4215 18.894  22.251   8.364
0.0372 11.560   4.730   7.338
0.1166 12.027   5.202   8.206
0.0372 12.257   6.230   7.865
0.0372 12.956   4.626   8.412
-0.6497 11.145   5.259   9.290
0.4215 11.441   5.984   9.878
0.0372 15.395  -3.583  19.764
0.1166 16.328  -3.342  20.343
0.0372 16.286  -3.786  21.371
0.0372 16.514  -2.318  20.402
-0.6497 17.322  -3.900  19.508
0.4215 18.124  -4.161  20.072
0.0372 13.633  -1.832  10.784
0.1166 12.907  -1.951   9.957
0.0372 12.177  -1.232  10.097
0.0372 12.451  -2.931   9.996
-0.6497 13.546  -1.659   8.718
0.4215 14.173  -2.377   8.533
0.0372 8.161   1.178  13.028
0.1166 7.755   2.152  13.469
0.0372 8.409   2.475  14.288
0.0372 6.776   1.995  13.925
-0.6497 7.617   3.218  12.593
0.4215 8.370   3.250  12.092
0.0372 19.047   6.869   6.634
0.1166 18.630   7.026   7.702
0.0372 19.327   7.465   8.426
0.0372 18.443   6.000   8.127
-0.6497 17.375   7.689   7.693
0.4215 17.014   7.659   6.781
0.0372 3.102  20.787  23.556
0.1166 3.761  21.112  22.720
0.0372 3.824  22.215  22.886
0.0372 3.265  20.837  21.822
-0.6497 5.025  20.491  22.782
0.4215 4.923  19.646  23.220
0.0372 12.376   3.963   4.476
0.1166 13.406   4.211   4.716
0.0372 13.519   3.568   5.620
0.0372 13.364   5.287   4.988
-0.6497 14.324   3.840   3.755
0.4215 14.957   3.181   4.102
0.0372 24.363  14.428   0.944
0.1166 25.349  14.155   0.542
0.0372 25.884  13.812   1.396
0.0372 25.894  14.963   0.122
-0.6497 25.196  13.091  -0.353
0.4215 24.242  13.074  -0.610
0.0372 6.936  17.046   9.802
0.1166 5.859  17.053   9.527
0.0372 5.297  17.927  10.009
0.0372 5.355  16.106   9.862
-0.6497 5.711  17.165   8.191
0.4215 5.358  16.336   7.775
0.0372 7.459  18.558  20.615
0.1166 7.725  19.522  21.065
0.0372 7.043  20.269  20.767
0.0372 8.667  19.948  20.784
-0.6497 7.677  19.393  22.416
0.4215 6.794  19.718  22.777
0.0372 13.436  12.451   9.668
0.1166 12.846  13.257   9.205
0.0372 12.442  12.867   8.269
0.0372 13.523  14.052   8.978
-0.6497 11.853  13.557  10.131
0.4215 12.190  14.291  10.662
0.0372 15.132  18.653  16.342
0.1166 15.962  18.919  15.650
0.0372 16.932  18.919  16.145
0.0372 15.779  19.980  15.276
-0.6497 15.963  18.089  14.469
0.4215 15.875  17.158  14.716
0.0372 20.565  15.550  -0.837
0.1166 20.577  16.345  -0.116
0.0372 20.687  17.283  -0.656
0.0372 21.467  16.274   0.560
-0.6497 19.371  16.305   0.617
0.4215 19.488  15.520   1.199
0.0372 4.403  -0.673   7.772
0.1166 4.724   0.124   7.101
0.0372 3.940   0.650   6.516
0.0372 5.313  -0.411   6.337
-0.6497 5.527   1.117   7.809
0.4215 6.268   0.642   8.174
0.0372 6.454  -7.955  24.244
0.1166 6.639  -7.885  23.176
0.0372 6.968  -8.837  22.768
0.0372 7.474  -7.172  23.099
-0.6497 5.637  -7.272  22.447
0.4215 5.402  -6.440  22.877
0.0372 7.696  -0.334   4.391
0.1166 7.415  -1.339   4.179
0.0372 8.201  -1.803   3.527
0.0372 6.454  -1.260   3.622
-0.6497 7.290  -2.077   5.436
0.4215 8.128  -2.481   5.674
0.0372 11.067   5.350  27.775
0.1166 10.046   5.277  28.243
0.0372 9.840   6.174  28.801
0.0372 10.081   4.382  28.907
-0.6497 9.069   5.040  27.213
0.4215 9.648   4.826  26.483
0.0372 15.991   7.230  10.832
0.1166 15.519   7.968  11.467
0.0372 14.830   8.512  10.796
0.0372 16.385   8.533  11.884
-0.6497 14.815   7.312  12.492
0.4215 14.759   7.966  13.248
0.0372 21.851  13.851  17.589
0.1166 21.882  14.636  16.862
0.0372 22.826  14.553  16.386
0.0372 21.783  15.602  17.280
-0.6497 20.928  14.409  15.928
0.4215 20.936  15.177  15.339
0.0372 1.445  17.008  19.635
0.1166 0.821  16.171  19.213
0.0372 0.195  15.733  19.944
0.0372 1.472  15.347  18.724
-0.6497 -0.031  16.821  18.283
0.4215 0.106  17.766  18.384
0.0372 8.723  11.716  12.685
0.1166 9.000  10.659  12.603
0.0372 8.866  10.233  13.574
0.0372 9.990  10.602  12.229
-0.6497 8.153  10.010  11.721
0.4215 8.493  10.154  10.770
0.0372 13.710   4.913  10.754
0.1166 14.179   4.014  11.247
0.0372 14.228   3.174  10.600
0.0372 13.577   3.748  12.084
-0.6497 15.414   4.526  11.580
0.4215 15.332   5.481  11.703
0.0372 10.723  22.084  17.150
0.1166 10.417  23.065  16.756
0.0372 9.846  23.442  17.591
0.0372 9.830  22.895  15.823
-0.6497 11.514  23.853  16.316
0.4215 11.210  24.317  15.478
0.0372 21.132   7.627   1.253
0.1166 21.157   7.632   2.358
0.0372 22.096   7.255   2.750
0.0372 20.290   6.923   2.715
-0.6497 20.944   8.980   2.762
0.4215 20.078   9.272   2.263
0.0372 13.705   0.763  -2.809
0.1166 13.312   0.031  -3.488
0.0372 13.352   0.596  -4.470
0.0372 12.243  -0.105  -3.244
-0.6497 13.924  -1.265  -3.564
0.4215 14.039  -1.462  -4.469
0.0372 -2.022   1.346   6.354
0.1166 -1.760   2.453   6.390
0.0372 -2.492   2.827   7.150
0.0372 -1.875   2.937   5.352
-0.6497 -0.471   2.546   6.805
0.4215 -0.259   1.734   7.342
0.0372 10.780  21.687  10.560
0.1166 10.835  22.363   9.689
0.0372 11.283  23.249  10.127
0.0372 9.813  22.719   9.368
-0.6497 11.514  21.818   8.575
0.4215 11.653  22.556   7.952
0.0372 5.092 -11.465  24.406
0.1166 5.801 -10.839  24.988
0.0372 5.471  -9.900  24.676
0.0372 6.804 -10.867  24.675
-0.6497 5.730 -10.849  26.411
0.4215 5.862  -9.955  26.701
0.0372 12.426  28.162  -1.444
0.1166 11.541  27.627  -1.637
0.0372 10.743  28.356  -1.673
0.0372 11.436  27.046  -0.725
-0.6497 11.488  26.691  -2.702
0.4215 10.692  27.047  -3.232
0.0372 8.695  21.639  -3.066
0.1166 9.169  20.639  -3.124
0.0372 10.117  20.515  -2.459
0.0372 9.453  20.582  -4.124
-0.6497 8.280  19.676  -2.696
0.4215 7.474  19.931  -3.190
0.0372 21.838  10.369  19.293
0.1166 21.167  10.885  20.046
0.0372 20.379  11.402  19.500
0.0372 21.844  11.499  20.558
-0.6497 20.818   9.913  21.024
0.4215 19.942  10.123  21.338
0.0372 5.249  19.759   4.263
0.1166 6.238  20.245   4.459
0.0372 6.468  19.875   5.405
0.0372 6.250  21.275   4.397
-0.6497 7.134  19.712   3.482
0.4215 6.754  18.882   3.157
0.0372 14.167  20.644  13.877
0.1166 13.403  20.909  14.585
0.0372 13.285  20.173  15.357
0.0372 12.420  20.948  14.116
-0.6497 13.679  22.236  15.110
0.4215 12.880  22.509  15.657
0.0372 1.927   4.340  12.210
0.1166 2.319   4.484  13.231
0.0372 3.149   5.212  13.073
0.0372 2.431   3.564  13.787
-0.6497 1.349   5.323  13.974
0.4215 0.618   4.802  14.388
0.0372 17.674   6.588  19.292
0.1166 16.823   6.603  18.645
0.0372 16.503   5.631  18.744
0.0372 17.159   6.824  17.683
-0.6497 15.912   7.552  19.191
0.4215 15.580   7.399  20.044
0.0372 12.926  14.215  18.427
0.1166 11.881  14.307  18.858
0.0372 11.787  15.276  19.365
0.0372 11.770  13.514  19.579
-0.6497 10.993  14.200  17.773
0.4215 11.192  13.369  17.325
0.0372 18.541  16.469   5.691
0.1166 18.379  15.730   6.464
0.0372 17.739  16.188   7.213
0.0372 19.405  15.444   6.889
-0.6497 17.610  14.744   5.912
0.4215 17.236  14.210   6.561
0.0372 19.847  15.019  20.355
0.1166 18.808  14.674  20.507
0.0372 18.478  15.055  21.505
0.0372 18.705  13.580  20.452
-0.6497 18.051  15.348  19.512
0.4215 18.168  14.871  18.675
0.0372 15.743  18.146  20.101
0.1166 15.716  17.582  19.148
0.0372 16.696  17.730  18.679
0.0372 14.876  17.835  18.548
-0.6497 15.540  16.242  19.409
0.4215 16.439  15.936  19.601
0.0372 1.841  12.539  16.175
0.1166 1.823  13.540  15.768
0.0372 0.932  14.063  16.010
0.0372 1.926  13.378  14.699
-0.6497 3.004  14.177  16.174
0.4215 3.020  15.189  15.945
0.0372 16.498  15.526   0.180
0.1166 16.689  15.299  -0.885
0.0372 15.705  15.366  -1.418
0.0372 17.207  14.343  -0.927
-0.6497 17.452  16.290  -1.515
0.4215 18.146  16.378  -0.880
0.0372 5.536   4.719   5.961
0.1166 4.481   4.725   6.292
0.0372 4.354   5.311   7.211
0.0372 4.342   3.671   6.487
-0.6497 3.522   5.022   5.287
0.4215 2.591   4.862   5.504
0.0372 8.352   2.056 -10.506
0.1166 7.508   2.271 -11.170
0.0372 7.960   2.700 -12.106
0.0372 6.758   2.970 -10.685
-0.6497 6.815   1.060 -11.505
0.4215 7.367   0.439 -12.029
0.0372 12.557  26.977  13.774
0.1166 11.538  26.614  14.058
0.0372 10.882  27.182  13.377
0.0372 11.124  26.785  15.076
-0.6497 11.275  25.284  13.782
0.4215 11.755  25.164  12.925
0.0372 15.790  19.454  -1.188
0.1166 14.768  19.102  -1.204
0.0372 14.720  18.336  -0.372
0.0372 14.564  18.596  -2.147
-0.6497 13.876  20.176  -0.893
0.4215 13.911  20.762  -1.662
0.0372 19.326  12.573 -13.716
0.1166 20.088  12.687 -12.951
0.0372 20.129  13.679 -12.483
0.0372 21.087  12.570 -13.401
-0.6497 19.828  11.708 -11.953
0.4215 19.169  12.082 -11.254
0.0372 10.136   0.836  -1.469
