1588

-0.1269 1.372 -25.823   2.819
-0.1269 3.050 -26.901   4.237
-0.1349 1.780 -26.863   3.679
0.1301 2.026 -24.012   1.817
0.1301 4.945 -25.865   4.229
0.0441 4.456 -23.042   3.287
0.0441 5.657 -24.209   2.517
0.0441 4.411 -23.424   1.492
0.1301 0.379 -25.809   2.443
0.1301 3.358 -27.749   4.889
0.1301 1.057 -27.587   4.103
-0.0772 14.509  -9.487  17.772
-0.1309 15.745  -8.924  17.385
-0.1309 14.428 -10.881  18.033
-0.0537 13.289  -8.602  17.879
-0.1269 16.909  -9.745  17.415
-0.1269 15.563 -11.630  17.996
-0.1349 16.774 -11.063  17.736
0.1301 15.875  -7.870  17.216
0.1301 13.479 -11.435  18.176
0.0441 12.665  -8.897  18.752
0.0441 13.568  -7.562  17.990
0.0441 12.737  -8.744  16.912
0.1301 17.902  -9.330  17.078
0.1301 15.422 -12.703  18.229
0.1301 17.636 -11.807  17.684
-0.0772 17.000   2.616  -3.140
-0.1309 15.663   2.160  -3.476
-0.1309 17.973   2.270  -4.145
-0.0537 17.323   3.565  -1.967
-0.1269 15.354   1.369  -4.581
-0.1269 17.668   1.422  -5.257
-0.1349 16.396   1.019  -5.475
0.1301 14.920   2.489  -2.851
0.1301 18.984   2.615  -3.940
0.0441 17.944   3.003  -1.298
0.0441 17.836   4.447  -2.371
0.0441 16.455   3.860  -1.340
0.1301 14.351   1.148  -4.810
0.1301 18.458   1.137  -5.989
0.1301 16.123   0.405  -6.357
-0.0772 20.801   1.584 -11.265
-0.1309 21.260   2.662 -10.494
-0.1309 19.905   0.682 -10.620
-0.0537 21.237   1.399 -12.646
-0.1269 20.663   2.991  -9.238
-0.1269 19.377   0.936  -9.347
-0.1349 19.668   2.158  -8.704
0.1301 22.049   3.264 -10.871
0.1301 19.600  -0.177 -11.134
0.0441 20.856   0.416 -13.096
0.0441 20.880   2.219 -13.369
0.0441 22.322   1.321 -12.663
0.1301 20.928   3.957  -8.819
0.1301 18.614   0.252  -8.867
0.1301 19.185   2.335  -7.798
-0.0772 16.095 -15.272  14.573
-0.1309 16.595 -15.810  13.348
-0.1309 14.735 -15.428  14.902
-0.0537 16.934 -14.431  15.565
-0.1269 15.707 -16.564  12.616
-0.1269 13.854 -16.201  14.088
-0.1349 14.390 -16.798  12.925
0.1301 17.563 -15.699  12.908
0.1301 14.341 -15.068  15.800
0.0441 16.210 -13.823  16.125
0.0441 17.410 -15.140  16.216
0.0441 17.679 -13.799  15.022
0.1301 16.052 -16.986  11.652
0.1301 12.763 -16.377  14.201
0.1301 13.861 -17.465  12.194
-0.0772 0.767 -28.083   8.436
-0.1309 0.985 -28.702   7.201
-0.1309 -0.526 -28.081   8.977
-0.0537 1.979 -27.351   9.181
-0.1269 -0.086 -29.406   6.507
-0.1269 -1.648 -28.641   8.233
-0.1349 -1.367 -29.374   7.021
0.1301 1.983 -28.669   6.812
0.1301 -0.757 -27.714   9.997
0.0441 2.638 -26.815   8.499
0.0441 1.643 -26.590   9.880
0.0441 2.601 -27.992   9.781
0.1301 0.170 -29.974   5.551
0.1301 -2.667 -28.614   8.589
0.1301 -2.192 -29.835   6.526
-0.0772 10.224 -21.946 -14.644
-0.1309 9.984 -23.284 -14.192
-0.1309 10.968 -21.086 -13.780
-0.0537 9.556 -21.460 -15.887
-0.1269 10.433 -23.821 -12.977
-0.1269 11.337 -21.594 -12.508
-0.1349 11.093 -22.886 -12.174
0.1301 9.368 -23.925 -14.894
0.1301 11.217 -20.101 -13.953
0.0441 9.227 -20.405 -15.833
0.0441 10.281 -21.637 -16.670
0.0441 8.762 -22.140 -16.107
0.1301 10.240 -24.841 -12.662
0.1301 11.861 -20.955 -11.775
0.1301 11.184 -23.202 -11.124
-0.0772 7.022 -10.681  28.440
-0.1309 5.699 -10.504  28.959
-0.1309 7.237 -11.617  27.416
-0.0537 8.117  -9.819  29.075
-0.1269 4.679 -11.289  28.427
-0.1269 6.190 -12.267  26.767
-0.1349 4.924 -12.138  27.316
0.1301 5.409  -9.735  29.622
0.1301 8.216 -11.690  27.050
0.0441 8.605 -10.426  29.856
0.0441 8.919  -9.658  28.361
0.0441 7.809  -8.909  29.599
0.1301 3.675 -11.146  28.828
0.1301 6.340 -12.840  25.863
0.1301 4.106 -12.662  26.918
-0.0772 -20.010  -0.862   7.650
-0.1309 -18.697  -1.051   8.129
-0.1309 -20.375  -1.004   6.255
-0.0537 -21.121  -0.387   8.637
-0.1269 -17.764  -1.490   7.234
-0.1269 -19.375  -1.468   5.363
-0.1349 -18.096  -1.712   5.854
0.1301 -18.370  -1.019   9.172
0.1301 -21.382  -0.800   5.870
0.0441 -20.715   0.557   8.999
0.0441 -22.169  -0.177   8.302
0.0441 -21.110  -0.856   9.564
0.1301 -16.770  -1.623   7.589
0.1301 -19.694  -1.538   4.302
0.1301 -17.239  -2.031   5.281
-0.0772 28.989  -5.963  -3.006
-0.1309 27.652  -5.705  -2.598
-0.1309 29.650  -5.004  -3.823
-0.0537 29.703  -7.175  -2.450
-0.1269 27.044  -4.533  -3.083
-0.1269 28.993  -3.887  -4.357
-0.1349 27.645  -3.729  -4.008
0.1301 27.197  -6.297  -1.897
0.1301 30.579  -5.079  -4.250
0.0441 29.215  -7.513  -1.596
0.0441 29.627  -7.884  -3.211
0.0441 30.712  -6.968  -1.996
0.1301 26.034  -4.287  -2.721
0.1301 29.547  -3.196  -4.977
0.1301 27.109  -2.866  -4.342
-0.0772 25.361 -14.218  -0.973
-0.1309 26.029 -14.981  -0.026
-0.1309 24.757 -14.882  -2.062
-0.0537 25.245 -12.748  -0.856
-0.1269 26.105 -16.384  -0.094
-0.1269 24.811 -16.299  -2.147
-0.1349 25.417 -17.022  -1.132
0.1301 26.441 -14.520   0.875
0.1301 24.033 -14.380  -2.740
0.0441 26.059 -12.249  -0.339
0.0441 25.249 -12.199  -1.791
0.0441 24.296 -12.486  -0.323
0.1301 26.730 -16.915   0.657
0.1301 24.168 -16.710  -2.944
0.1301 25.338 -18.145  -1.143
-0.0772 17.486  -6.833  25.428
-0.1309 17.767  -5.448  25.305
-0.1309 16.214  -7.296  25.101
-0.0537 18.610  -7.824  25.820
-0.1269 16.800  -4.586  24.759
-0.1269 15.177  -6.462  24.623
-0.1349 15.562  -5.140  24.355
0.1301 18.781  -5.147  25.544
0.1301 16.016  -8.389  25.002
0.0441 19.487  -7.176  26.235
0.0441 18.278  -8.503  26.644
0.0441 19.059  -8.520  25.009
0.1301 17.050  -3.480  24.572
0.1301 14.258  -7.031  24.328
0.1301 14.858  -4.455  23.901
-0.0772 21.757   1.600   9.359
-0.1309 20.569   2.283   9.052
-0.1309 22.062   1.245  10.689
-0.0537 22.699   1.165   8.186
-0.1269 19.591   2.489  10.020
-0.1269 21.208   1.670  11.697
-0.1349 19.970   2.159  11.396
0.1301 20.251   2.535   8.013
0.1301 22.978   0.705  11.004
0.0441 23.793   1.258   8.575
0.0441 22.528   0.189   7.720
0.0441 22.607   2.023   7.487
0.1301 18.612   3.015   9.773
0.1301 21.491   1.392  12.721
0.1301 19.325   2.493  12.205
-0.0772 -0.562   9.125  12.293
-0.1309 -1.502   8.502  11.460
-0.1309 -0.948   9.504  13.612
-0.0537 0.855   9.509  11.833
-0.1269 -2.812   8.283  11.886
-0.1269 -2.250   9.259  14.055
-0.1349 -3.176   8.641  13.186
0.1301 -1.194   8.231  10.495
0.1301 -0.158   9.996  14.233
0.0441 0.953   9.627  10.777
0.0441 0.993  10.552  12.254
0.0441 1.577   8.859  12.314
0.1301 -3.442   7.816  11.236
0.1301 -2.635   9.556  15.121
0.1301 -4.139   8.357  13.672
-0.0772 19.659  -5.082   1.804
-0.1309 20.167  -3.906   2.431
-0.1309 18.383  -5.030   1.233
-0.0537 20.420  -6.415   1.733
-0.1269 19.262  -2.817   2.695
-0.1269 17.455  -4.014   1.579
-0.1349 17.900  -2.880   2.264
0.1301 21.205  -3.865   2.816
0.1301 17.991  -5.903   0.639
0.0441 21.303  -6.274   1.187
0.0441 20.720  -6.781   2.772
0.0441 19.946  -7.304   1.291
0.1301 19.575  -1.949   3.216
0.1301 16.391  -4.001   1.324
0.1301 17.159  -2.118   2.529
-0.0772 5.508 -17.348  24.263
-0.1309 4.432 -18.060  24.783
-0.1309 5.685 -17.219  22.898
-0.0537 6.354 -16.634  25.313
-0.1269 3.767 -18.982  23.885
-0.1269 4.916 -18.055  22.018
-0.1349 4.040 -18.974  22.526
0.1301 4.234 -18.199  25.799
0.1301 6.286 -16.379  22.487
0.0441 6.321 -15.563  25.235
0.0441 6.109 -16.865  26.323
0.0441 7.405 -16.924  25.215
0.1301 3.069 -19.725  24.257
0.1301 4.955 -17.929  20.907
0.1301 3.520 -19.735  22.003
-0.0772 15.117 -13.449 -12.011
-0.1309 14.710 -14.620 -11.258
-0.1309 16.483 -13.147 -12.099
-0.0537 14.152 -12.546 -12.745
-0.1269 15.696 -15.366 -10.592
-0.1269 17.427 -14.025 -11.463
-0.1349 17.077 -15.111 -10.666
0.1301 13.618 -14.884 -11.215
0.1301 16.763 -12.302 -12.733
0.0441 14.449 -12.483 -13.782
0.0441 13.165 -12.995 -12.673
0.0441 14.202 -11.536 -12.261
0.1301 15.392 -16.196  -9.959
0.1301 18.491 -13.836 -11.683
0.1301 17.786 -15.822 -10.137
-0.0772 6.053 -16.583  15.302
-0.1309 4.744 -17.099  15.173
-0.1309 7.193 -17.417  15.065
-0.0537 6.273 -15.138  15.641
-0.1269 4.501 -18.427  14.926
-0.1269 6.966 -18.775  14.773
-0.1349 5.640 -19.213  14.760
0.1301 3.869 -16.573  15.331
0.1301 8.190 -17.108  15.206
0.0441 5.629 -14.447  15.148
0.0441 5.952 -15.074  16.671
0.0441 7.372 -14.704  15.532
0.1301 3.480 -18.844  14.963
0.1301 7.811 -19.423  14.525
0.1301 5.394 -20.253  14.650
-0.0772 15.998   6.763  19.073
-0.1309 16.892   6.821  18.026
-0.1309 15.515   5.549  19.567
-0.0537 15.649   8.110  19.753
-0.1269 17.314   5.669  17.360
-0.1269 15.984   4.339  18.927
-0.1349 16.850   4.373  17.859
0.1301 17.245   7.807  17.794
0.1301 14.955   5.506  20.455
0.0441 14.546   8.274  19.485
0.0441 15.821   8.056  20.782
0.0441 16.254   8.913  19.286
0.1301 18.120   5.762  16.612
0.1301 15.360   3.399  19.115
0.1301 16.997   3.412  17.295
-0.0772 12.080  12.457  -3.204
-0.1309 12.389  11.475  -4.139
-0.1309 13.162  12.889  -2.477
-0.0537 10.702  13.056  -3.088
-0.1269 13.633  10.900  -4.281
-0.1269 14.484  12.368  -2.635
-0.1349 14.714  11.296  -3.455
0.1301 11.704  11.093  -4.859
0.1301 12.954  13.712  -1.812
0.0441 10.845  14.170  -3.157
0.0441 10.052  12.751  -3.965
0.0441 10.297  12.874  -2.134
0.1301 13.771  10.143  -4.934
0.1301 15.306  12.970  -2.158
0.1301 15.702  10.848  -3.681
-0.0772 12.765   4.136  18.023
-0.1309 13.029   2.846  17.553
-0.1309 12.223   4.282  19.328
-0.0537 13.130   5.256  17.132
-0.1269 12.775   1.678  18.304
-0.1269 12.066   3.163  20.133
-0.1349 12.274   1.879  19.597
0.1301 13.381   2.702  16.559
0.1301 12.155   5.257  19.801
0.0441 12.386   5.600  16.423
0.0441 13.345   6.125  17.820
0.0441 14.056   5.023  16.557
0.1301 12.966   0.718  17.854
0.1301 11.623   3.205  21.168
0.1301 12.087   0.967  20.255
-0.0772 2.392   6.402  17.860
-0.1309 2.227   6.085  16.537
-0.1309 2.289   7.755  18.198
-0.0537 2.852   5.323  18.869
-0.1269 2.031   7.085  15.603
-0.1269 2.109   8.824  17.231
-0.1349 2.016   8.476  15.933
0.1301 2.264   5.020  16.247
0.1301 2.155   8.013  19.271
0.0441 3.317   4.405  18.415
0.0441 3.689   5.764  19.486
0.0441 1.979   5.091  19.524
0.1301 1.792   6.811  14.590
0.1301 1.878   9.813  17.599
0.1301 1.752   9.171  15.135
-0.0772 12.723 -10.810  -4.103
-0.1309 11.551 -11.114  -4.847
-0.1309 12.803 -11.155  -2.761
-0.0537 13.966 -10.200  -4.679
-0.1269 10.411 -11.709  -4.181
-0.1269 11.673 -11.627  -2.078
-0.1349 10.472 -11.952  -2.771
0.1301 11.631 -10.810  -5.854
0.1301 13.713 -11.035  -2.202
0.0441 14.783 -10.128  -3.972
0.0441 14.406 -10.789  -5.481
0.0441 13.761  -9.190  -5.055
0.1301 9.540 -11.864  -4.701
0.1301 11.749 -11.733  -1.001
0.1301 9.689 -12.423  -2.182
-0.0772 -4.542   1.324   4.687
-0.1309 -4.601   0.064   5.244
-0.1309 -3.504   1.783   3.892
-0.0537 -5.640   2.350   4.956
-0.1269 -3.581  -0.861   4.982
-0.1269 -2.533   0.855   3.560
-0.1349 -2.520  -0.440   4.122
0.1301 -5.444  -0.277   5.841
0.1301 -3.452   2.782   3.541
0.0441 -6.421   2.365   4.115
0.0441 -6.071   2.166   5.947
0.0441 -5.238   3.374   5.067
0.1301 -3.725  -1.919   5.240
0.1301 -1.799   1.104   2.768
0.1301 -1.837  -1.177   3.766
-0.0772 -11.720 -16.511  21.396
-0.1309 -10.727 -16.215  20.429
-0.1309 -12.537 -17.629  21.283
-0.0537 -11.714 -15.798  22.729
-0.1269 -10.804 -16.832  19.226
-0.1269 -12.520 -18.395  20.102
-0.1349 -11.605 -17.999  19.091
0.1301 -9.846 -15.621  20.702
0.1301 -13.107 -17.904  22.172
0.0441 -10.727 -15.296  22.830
0.0441 -12.411 -14.951  22.680
0.0441 -11.976 -16.450  23.560
0.1301 -10.159 -16.588  18.386
0.1301 -13.166 -19.231  20.058
0.1301 -11.497 -18.500  18.146
-0.0772 9.170 -24.185  16.874
-0.1309 8.628 -25.504  16.979
-0.1309 8.319 -23.088  16.667
-0.0537 10.682 -24.008  17.008
-0.1269 7.231 -25.723  16.830
-0.1269 6.959 -23.327  16.417
-0.1349 6.421 -24.644  16.468
0.1301 9.266 -26.284  17.178
0.1301 8.730 -22.090  16.704
0.0441 11.196 -23.902  16.028
0.0441 10.896 -23.116  17.586
0.0441 11.190 -24.800  17.619
0.1301 6.707 -26.733  16.886
0.1301 6.298 -22.547  16.204
0.1301 5.381 -24.807  16.494
-0.0772 1.091 -10.683  15.358
-0.1309 0.286 -11.789  14.925
-0.1309 2.483 -10.714  15.151
-0.0537 0.364  -9.463  15.962
-0.1269 0.986 -12.876  14.316
-0.1269 3.185 -11.772  14.531
-0.1349 2.408 -12.846  14.103
0.1301 -0.815 -11.718  14.938
0.1301 3.087  -9.851  15.530
0.0441 -0.706  -9.608  15.734
0.0441 0.461  -9.439  17.058
0.0441 0.725  -8.534  15.550
0.1301 0.379 -13.639  13.986
0.1301 4.227 -11.647  14.306
0.1301 2.908 -13.710  13.661
-0.0772 22.384  -5.974  19.460
-0.1309 22.818  -7.011  20.365
-0.1309 21.187  -5.229  19.709
-0.0537 23.301  -5.496  18.351
-0.1269 22.055  -7.445  21.499
-0.1269 20.438  -5.639  20.808
-0.1349 20.855  -6.698  21.689
0.1301 23.805  -7.415  20.333
0.1301 20.838  -4.496  19.003
0.0441 23.071  -6.089  17.398
0.0441 23.160  -4.482  18.045
0.0441 24.408  -5.579  18.575
0.1301 22.348  -8.176  22.252
0.1301 19.452  -5.247  21.014
0.1301 20.122  -6.983  22.442
-0.0772 23.518  -7.419  -2.228
-0.1309 24.766  -8.035  -1.764
-0.1309 22.319  -7.650  -1.515
-0.0537 23.472  -6.581  -3.476
-0.1269 24.724  -8.946  -0.744
-0.1269 22.308  -8.666  -0.589
-0.1349 23.494  -9.303  -0.186
0.1301 25.717  -7.759  -2.228
0.1301 21.372  -7.211  -1.719
0.0441 23.585  -7.208  -4.345
0.0441 22.483  -6.082  -3.527
0.0441 24.212  -5.762  -3.389
0.1301 25.608  -9.434  -0.385
0.1301 21.393  -8.885  -0.020
0.1301 23.579 -10.020   0.639
-0.0772 13.942 -17.809  18.757
-0.1309 12.542 -17.501  18.713
-0.1309 14.289 -19.156  18.881
-0.0537 14.953 -16.722  18.650
-0.1269 11.542 -18.510  18.756
-0.1269 13.324 -20.124  19.185
-0.1349 11.966 -19.746  19.148
0.1301 12.212 -16.475  18.679
0.1301 15.321 -19.438  18.854
0.0441 14.486 -15.702  18.547
0.0441 15.736 -16.704  19.367
0.0441 15.369 -16.831  17.625
0.1301 10.470 -18.312  18.614
0.1301 13.647 -21.132  19.456
0.1301 11.169 -20.472  19.374
-0.0772 6.363 -19.880   3.308
-0.1309 5.669 -20.207   2.129
-0.1309 7.600 -20.523   3.556
-0.0537 5.786 -19.032   4.416
-0.1269 6.270 -21.041   1.151
-0.1269 8.179 -21.363   2.578
-0.1349 7.512 -21.616   1.373
0.1301 4.729 -19.704   1.911
0.1301 8.105 -20.401   4.436
0.0441 5.316 -18.114   4.035
0.0441 4.963 -19.577   4.856
0.0441 6.460 -18.784   5.221
0.1301 5.807 -21.224   0.140
0.1301 9.159 -21.826   2.785
0.1301 7.951 -22.357   0.671
-0.0772 24.937 -12.353   7.855
-0.1309 24.632 -11.058   8.404
-0.1309 25.002 -13.444   8.751
-0.0537 25.233 -12.487   6.366
-0.1269 24.497 -10.880   9.754
-0.1269 24.833 -13.210  10.122
-0.1349 24.594 -11.965  10.634
0.1301 24.663 -10.177   7.766
0.1301 25.003 -14.459   8.370
0.0441 24.337 -12.024   5.813
0.0441 26.138 -12.004   6.180
0.0441 25.378 -13.569   6.034
0.1301 24.507  -9.846  10.205
0.1301 24.920 -14.035  10.824
0.1301 24.575 -11.836  11.736
-0.0772 20.059 -10.008  -7.687
-0.1309 21.305  -9.427  -7.411
-0.1309 19.180 -10.374  -6.656
-0.0537 19.576 -10.024  -9.117
-0.1269 21.632  -9.036  -6.086
-0.1269 19.594 -10.135  -5.337
-0.1349 20.796  -9.565  -5.072
0.1301 21.911  -9.182  -8.250
0.1301 18.157 -10.722  -6.894
0.0441 18.545  -9.536  -9.202
0.0441 20.181  -9.474  -9.866
0.0441 19.461 -11.034  -9.520
0.1301 22.534  -8.448  -5.942
0.1301 19.024 -10.266  -4.430
0.1301 21.117  -9.441  -4.034
-0.0772 5.255  -5.791  21.924
-0.1309 5.730  -5.873  20.602
-0.1309 6.060  -5.184  22.929
-0.0537 3.858  -6.286  22.299
-0.1269 7.015  -5.476  20.284
-0.1269 7.328  -4.683  22.588
-0.1349 7.842  -4.883  21.276
0.1301 5.045  -6.252  19.841
0.1301 5.716  -5.033  23.933
0.0441 4.035  -7.272  22.769
0.0441 3.346  -5.600  23.044
0.0441 3.175  -6.393  21.505
0.1301 7.358  -5.620  19.270
0.1301 7.908  -4.159  23.347
0.1301 8.818  -4.493  21.047
-0.0772 28.021  -9.266   3.882
-0.1309 28.123 -10.092   2.761
-0.1309 27.823  -7.900   3.698
-0.0537 28.555  -9.741   5.242
-0.1269 27.940  -9.564   1.460
-0.1269 27.493  -7.384   2.434
-0.1349 27.575  -8.188   1.287
0.1301 28.348 -11.150   2.943
0.1301 27.741  -7.317   4.644
0.0441 29.182 -10.676   5.166
0.0441 29.203  -8.960   5.635
0.0441 27.669  -9.941   5.830
0.1301 28.069 -10.244   0.611
0.1301 27.154  -6.372   2.423
0.1301 27.496  -7.735   0.297
-0.0772 9.459  -8.439   8.897
-0.1309 9.586  -9.075   7.646
-0.1309 9.840  -7.079   8.981
-0.0537 9.258  -9.191  10.204
-0.1269 10.101  -8.375   6.542
-0.1269 10.158  -6.353   7.855
-0.1349 10.348  -7.008   6.660
0.1301 9.353 -10.102   7.540
0.1301 9.645  -6.534   9.892
0.0441 8.345  -8.874  10.744
0.0441 9.106 -10.264  10.079
0.0441 10.210  -9.091  10.823
0.1301 10.140  -8.836   5.605
0.1301 10.302  -5.263   7.936
0.1301 10.754  -6.470   5.785
-0.0772 18.451   7.092 -11.602
-0.1309 18.556   7.714 -12.865
-0.1309 18.224   7.915 -10.491
-0.0537 18.506   5.557 -11.537
-0.1269 18.305   9.080 -12.993
-0.1269 17.965   9.310 -10.638
-0.1349 18.068   9.922 -11.876
0.1301 18.904   7.169 -13.814
0.1301 18.112   7.491  -9.499
0.0441 17.954   5.113 -12.370
0.0441 19.570   5.244 -11.578
0.0441 18.072   5.204 -10.578
0.1301 18.424   9.564 -13.977
0.1301 17.808   9.901  -9.797
0.1301 17.912  10.967 -11.953
-0.0772 8.368 -28.075   7.516
-0.1309 8.816 -28.359   8.821
-0.1309 7.041 -27.636   7.397
-0.0537 9.144 -28.314   6.178
-0.1269 7.998 -28.257   9.958
-0.1269 6.236 -27.584   8.543
-0.1349 6.699 -27.841   9.832
0.1301 9.884 -28.534   8.937
0.1301 6.652 -27.468   6.415
0.0441 10.205 -28.397   6.251
0.0441 8.767 -29.116   5.488
0.0441 9.025 -27.392   5.551
0.1301 8.352 -28.402  10.983
0.1301 5.326 -27.012   8.448
0.1301 6.065 -27.839  10.693
-0.0772 5.511   4.213  13.394
-0.1309 6.882   4.312  13.126
-0.1309 4.934   3.041  14.000
-0.0537 4.569   5.359  13.033
-0.1269 7.730   3.283  13.425
-0.1269 5.810   1.915  14.113
-0.1349 7.198   2.050  13.898
0.1301 7.321   5.194  12.810
0.1301 3.893   2.897  14.207
0.0441 4.076   5.717  13.932
0.0441 5.173   6.144  12.590
0.0441 3.747   5.059  12.356
0.1301 8.838   3.432  13.271
0.1301 5.442   1.076  14.680
0.1301 7.762   1.224  14.097
-0.0772 8.132  -0.622  24.018
-0.1309 8.371   0.547  24.765
-0.1309 7.172  -0.587  23.018
-0.0537 8.719  -1.945  24.499
-0.1269 7.692   1.734  24.455
-0.1269 6.576   0.618  22.579
-0.1349 6.783   1.787  23.383
0.1301 9.028   0.560  25.635
0.1301 6.757  -1.557  22.699
0.0441 9.269  -2.439  23.718
0.0441 9.380  -1.798  25.394
0.0441 7.958  -2.621  24.857
0.1301 7.919   2.613  25.136
0.1301 5.739   0.607  21.807
0.1301 6.175   2.641  23.172
-0.0772 23.195  -2.640  -7.635
-0.1309 22.028  -1.829  -7.893
-0.1309 23.488  -3.116  -6.346
-0.0537 24.087  -3.112  -8.801
-0.1269 21.222  -1.449  -6.799
-0.1269 22.650  -2.743  -5.300
-0.1349 21.571  -1.906  -5.518
0.1301 21.812  -1.726  -8.906
0.1301 24.367  -3.770  -6.249
0.0441 24.619  -4.074  -8.597
0.0441 23.508  -3.252  -9.725
0.0441 24.952  -2.492  -9.037
0.1301 20.364  -0.835  -6.990
0.1301 22.725  -3.235  -4.298
0.1301 20.910  -1.638  -4.730
-0.0772 -1.558  -1.295   8.818
-0.1309 -2.351  -0.192   8.707
-0.1309 -1.956  -2.319   9.715
-0.0537 -0.318  -1.500   7.914
-0.1269 -3.440   0.003   9.579
-0.1269 -3.012  -2.164  10.576
-0.1349 -3.735  -0.971  10.611
0.1301 -2.068   0.492   7.902
0.1301 -1.368  -3.233   9.644
0.0441 -0.304  -2.509   7.490
0.0441 -0.185  -0.724   7.137
0.0441 0.508  -1.663   8.564
0.1301 -3.938   0.984   9.676
0.1301 -3.195  -3.044  11.236
0.1301 -4.492  -0.795  11.366
-0.0772 21.359 -11.556  17.928
-0.1309 20.424 -12.623  18.107
-0.1309 22.032 -11.388  16.677
-0.0537 21.623 -10.532  19.029
-0.1269 20.044 -13.417  17.060
-0.1269 21.684 -12.313  15.639
-0.1349 20.641 -13.216  15.799
0.1301 19.980 -12.679  19.047
0.1301 22.627 -10.501  16.431
0.0441 22.620 -10.103  19.159
0.0441 20.991  -9.646  18.829
0.0441 21.344 -10.885  20.005
0.1301 19.282 -14.215  17.148
0.1301 22.048 -12.099  14.591
0.1301 20.311 -13.813  14.969
-0.0772 18.614 -14.532   0.572
-0.1309 19.010 -13.487   1.851
-0.1309 19.012 -14.159  -1.025
-0.0537 17.591 -15.778   0.831
-0.1269 20.326 -11.466   0.982
-0.1269 19.819 -12.808  -1.625
-0.1349 20.468 -11.542  -0.747
0.1301 18.714 -13.703   2.865
0.1301 18.642 -14.846  -1.712
0.0441 17.661 -16.521   0.015
0.0441 17.837 -16.345   1.784
0.0441 16.587 -15.461   0.916
0.1301 20.712 -10.565   1.500
0.1301 19.823 -12.711  -2.721
0.1301 21.023 -10.806  -1.223
-0.0772 23.647  -7.420  11.929
-0.1309 23.528  -6.971  10.604
-0.1309 22.893  -8.517  12.387
-0.0537 24.572  -6.771  12.944
-0.1269 22.569  -7.611   9.741
-0.1269 21.991  -9.151  11.541
-0.1349 21.791  -8.655  10.265
0.1301 24.095  -6.135  10.304
0.1301 23.106  -8.984  13.331
0.0441 24.063  -6.580  13.894
0.0441 24.893  -5.789  12.534
0.0441 25.433  -7.461  13.081
0.1301 22.234  -7.176   8.740
0.1301 21.348  -9.961  11.838
0.1301 21.025  -9.160   9.639
-0.0772 16.420 -18.704  -6.653
-0.1309 16.654 -19.651  -5.638
-0.1309 15.102 -18.193  -6.736
-0.0537 17.467 -18.400  -7.745
-0.1269 15.727 -19.900  -4.624
-0.1269 14.108 -18.467  -5.783
-0.1349 14.392 -19.357  -4.741
0.1301 17.702 -20.065  -5.565
0.1301 14.790 -17.552  -7.552
0.0441 18.100 -19.265  -7.879
0.0441 16.933 -18.034  -8.608
0.0441 18.083 -17.592  -7.442
0.1301 15.889 -20.523  -3.815
0.1301 13.145 -17.937  -5.974
0.1301 13.743 -19.504  -3.866
-0.0772 -1.963  -9.127   3.997
-0.1309 -0.607  -9.215   3.935
-0.1309 -2.699  -9.840   5.017
-0.0537 -2.639  -8.329   2.890
-0.1269 0.093 -10.143   4.791
-0.1269 -2.014 -10.620   5.998
-0.1349 -0.592 -10.737   5.865
0.1301 -0.179  -8.607   3.143
0.1301 -3.755  -9.644   5.183
0.0441 -2.131  -7.383   2.513
0.0441 -2.673  -8.961   1.956
0.0441 -3.670  -8.262   3.266
0.1301 1.137 -10.420   4.609
0.1301 -2.508 -11.191   6.710
0.1301 -0.067 -11.336   6.651
-0.0772 -9.018  -0.121   1.686
-0.1309 -8.884  -0.662   2.964
-0.1309 -9.596  -0.932   0.650
-0.0537 -8.757   1.317   1.360
-0.1269 -9.354  -1.940   3.288
-0.1269 -9.949  -2.230   0.970
-0.1349 -9.873  -2.709   2.287
0.1301 -8.578  -0.023   3.702
0.1301 -9.711  -0.543  -0.338
0.0441 -7.901   1.502   0.676
0.0441 -9.606   1.734   0.773
0.0441 -8.677   1.883   2.277
0.1301 -9.176  -2.354   4.303
0.1301 -10.428  -2.914   0.267
0.1301 -10.218  -3.680   2.515
-0.0772 -6.157   1.457  17.470
-0.1309 -7.320   1.986  18.168
-0.1309 -6.303   0.316  16.667
-0.0537 -4.878   2.254  17.435
-0.1269 -8.516   1.248  18.198
-0.1269 -7.502  -0.342  16.687
-0.1349 -8.602   0.031  17.447
0.1301 -7.285   2.943  18.722
0.1301 -5.495  -0.097  16.068
0.0441 -4.926   3.186  16.823
0.0441 -4.718   2.664  18.467
0.0441 -3.973   1.814  17.096
0.1301 -9.416   1.588  18.822
0.1301 -7.523  -1.182  16.005
0.1301 -9.564  -0.472  17.388
-0.0772 12.140 -19.807  14.295
-0.1309 11.205 -18.800  14.343
-0.1309 12.402 -20.437  13.058
-0.0537 12.815 -20.069  15.590
-0.1269 10.624 -18.310  13.162
-0.1269 11.814 -19.940  11.911
-0.1349 10.867 -18.897  11.946
0.1301 11.058 -18.132  15.197
0.1301 13.176 -21.166  12.960
0.0441 12.168 -20.626  16.310
0.0441 13.726 -20.622  15.458
0.0441 13.264 -19.196  15.939
0.1301 10.031 -17.403  13.220
0.1301 12.100 -20.332  10.906
0.1301 10.332 -18.489  11.065
-0.0772 28.530   5.054   4.282
-0.1309 29.352   4.590   3.229
-0.1309 27.874   4.140   5.119
-0.0537 28.621   6.545   4.594
-0.1269 29.498   3.218   3.071
-0.1269 27.974   2.771   4.954
-0.1349 28.739   2.288   3.846
0.1301 29.727   5.308   2.474
0.1301 27.216   4.447   5.977
0.0441 27.741   6.966   5.187
0.0441 29.494   6.721   5.215
0.0441 28.724   7.121   3.706
0.1301 30.109   2.754   2.303
0.1301 27.473   2.179   5.644
0.1301 28.734   1.264   3.614
-0.0772 9.848 -25.940  -7.891
-0.1309 8.805 -26.820  -7.637
-0.1309 10.454 -25.220  -6.856
-0.0537 10.242 -25.597  -9.272
-0.1269 8.320 -26.917  -6.334
-0.1269 9.992 -25.342  -5.570
-0.1349 8.916 -26.183  -5.264
0.1301 8.493 -27.495  -8.452
0.1301 11.149 -24.476  -7.080
0.0441 9.382 -25.470  -9.948
0.0441 10.868 -24.728  -9.343
0.0441 10.914 -26.362  -9.669
0.1301 7.678 -27.758  -6.152
0.1301 10.388 -24.747  -4.704
0.1301 8.615 -26.333  -4.230
-0.0772 16.906  -3.486 -12.261
-0.1309 18.594  -3.245 -12.103
-0.1309 15.827  -3.885 -11.029
-0.0537 16.314  -3.083 -13.560
-0.1269 19.549  -3.398 -10.739
-0.1269 16.362  -4.167  -9.426
-0.1349 18.882  -3.851  -9.248
0.1301 19.144  -2.996 -12.961
0.1301 14.731  -3.923 -11.210
0.0441 15.607  -3.868 -13.940
0.0441 15.819  -2.177 -13.607
0.0441 17.066  -2.942 -14.316
0.1301 20.549  -3.130 -10.779
0.1301 15.618  -4.477  -8.683
0.1301 19.518  -3.946  -8.400
-0.0772 30.497  -3.798   3.468
-0.1309 30.356  -5.101   3.030
-0.1309 30.414  -2.782   2.514
-0.0537 30.777  -3.475   4.970
-0.1269 30.231  -5.413   1.648
-0.1269 30.157  -3.103   1.161
-0.1349 30.049  -4.376   0.712
0.1301 30.312  -5.900   3.758
0.1301 30.487  -1.726   2.774
0.0441 31.340  -4.314   5.415
0.0441 31.575  -2.710   5.054
0.0441 29.896  -3.236   5.701
0.1301 30.167  -6.474   1.365
0.1301 30.106  -2.273   0.490
0.1301 29.930  -4.557  -0.375
-0.0772 23.770  -5.261 -17.377
-0.1309 22.611  -6.060 -17.453
-0.1309 24.162  -4.618 -18.593
-0.0537 24.551  -5.295 -16.072
-0.1269 21.779  -6.128 -18.564
-0.1269 23.361  -4.795 -19.689
-0.1349 22.222  -5.554 -19.725
0.1301 22.247  -6.596 -16.523
0.1301 24.972  -3.899 -18.548
0.0441 25.138  -4.318 -16.066
0.0441 23.882  -5.231 -15.219
0.0441 25.261  -6.165 -15.973
0.1301 20.889  -6.789 -18.673
0.1301 23.623  -4.300 -20.663
0.1301 21.675  -5.677 -20.678
-0.0772 19.845   3.181 -17.510
-0.1309 19.401   4.085 -16.538
-0.1309 19.331   3.319 -18.823
-0.0537 20.765   2.073 -17.198
-0.1269 18.658   5.271 -16.862
-0.1269 18.581   4.454 -19.135
-0.1349 18.159   5.387 -18.189
0.1301 19.586   3.896 -15.493
0.1301 19.625   2.706 -19.666
0.0441 20.452   1.369 -16.386
0.0441 21.063   1.521 -18.033
0.0441 21.680   2.473 -16.828
0.1301 18.432   5.934 -16.063
0.1301 18.145   4.532 -20.129
0.1301 17.489   6.278 -18.407
-0.0772 14.629  -6.454   2.282
-0.1309 15.210  -6.498   3.521
-0.1309 13.591  -5.622   1.970
-0.0537 15.070  -7.487   1.206
-0.1269 14.652  -5.681   4.611
-0.1269 13.051  -4.792   2.982
-0.1349 13.498  -4.856   4.295
0.1301 16.037  -7.191   3.591
0.1301 13.093  -5.594   0.943
0.0441 15.199  -8.509   1.667
0.0441 14.430  -7.585   0.367
0.0441 16.064  -7.170   0.793
0.1301 14.965  -5.730   5.638
0.1301 12.285  -4.061   2.716
0.1301 13.060  -4.195   5.029
-0.0772 10.787 -23.026  -1.472
-0.1309 10.803 -21.637  -1.066
-0.1309 11.996 -23.627  -2.001
-0.0537 9.486 -23.831  -1.312
-0.1269 11.954 -20.832  -1.300
-0.1269 13.033 -22.805  -2.248
-0.1349 13.097 -21.489  -1.821
0.1301 9.939 -21.164  -0.692
0.1301 11.925 -24.560  -2.430
0.0441 9.187 -24.000  -0.228
0.0441 8.773 -23.156  -1.673
0.0441 9.610 -24.794  -1.873
0.1301 11.868 -19.768  -1.145
0.1301 13.850 -23.178  -2.778
0.1301 13.999 -20.850  -1.982
-0.0772 20.994 -14.670  -8.456
-0.1309 21.565 -15.511  -9.458
-0.1309 21.619 -13.453  -8.168
-0.0537 19.842 -15.219  -7.672
-0.1269 22.702 -15.062 -10.126
-0.1269 22.735 -13.024  -8.932
-0.1349 23.188 -13.787  -9.943
0.1301 21.146 -16.405  -9.850
0.1301 21.200 -12.753  -7.429
0.0441 19.299 -14.486  -7.000
0.0441 19.060 -15.584  -8.374
0.0441 20.142 -15.997  -6.870
0.1301 23.146 -15.668 -10.961
0.1301 23.156 -11.978  -8.788
0.1301 24.087 -13.454 -10.485
-0.0772 4.484  -2.121 -29.156
-0.1309 3.495  -1.095 -29.027
-0.1309 5.403  -2.307 -28.137
-0.0537 4.716  -3.038 -30.363
-0.1269 3.412  -0.248 -27.965
-0.1269 5.335  -1.450 -27.046
-0.1349 4.293  -0.461 -26.875
0.1301 2.795  -1.095 -29.923
0.1301 6.258  -2.930 -28.428
0.0441 5.581  -3.603 -30.196
0.0441 3.831  -3.655 -30.513
0.0441 4.815  -2.437 -31.253
0.1301 2.651   0.579 -28.031
0.1301 6.034  -1.547 -26.231
0.1301 4.321   0.244 -26.030
-0.0772 4.535 -23.889 -10.598
-0.1309 5.744 -23.194 -10.375
-0.1309 4.620 -25.176 -11.199
-0.0537 3.348 -23.396  -9.747
-0.1269 6.992 -23.598 -10.972
-0.1269 5.882 -25.670 -11.638
-0.1349 6.957 -24.766 -11.665
0.1301 5.724 -22.246  -9.816
0.1301 3.786 -25.763 -11.350
0.0441 3.581 -22.316  -9.499
0.0441 2.358 -23.538 -10.219
0.0441 3.331 -24.041  -8.837
0.1301 7.821 -22.950 -11.003
0.1301 5.895 -26.672 -12.177
0.1301 7.883 -24.946 -12.171
-0.0772 13.841 -23.796  -6.708
-0.1309 14.267 -23.654  -8.039
-0.1309 13.733 -25.093  -6.221
-0.0537 13.696 -22.527  -5.836
-0.1269 14.576 -24.719  -8.861
-0.1269 14.145 -26.232  -6.984
-0.1349 14.521 -26.024  -8.369
0.1301 14.348 -22.689  -8.373
0.1301 13.370 -25.326  -5.200
0.0441 14.369 -22.609  -4.974
0.0441 14.054 -21.639  -6.296
0.0441 12.613 -22.333  -5.547
0.1301 14.852 -24.567  -9.879
0.1301 14.158 -27.268  -6.552
0.1301 14.752 -26.866  -9.059
-0.0772 1.442  -3.476 -22.253
-0.1309 1.730  -3.878 -23.514
-0.1309 2.325  -2.597 -21.549
-0.0537 0.131  -3.835 -21.585
-0.1269 2.972  -3.561 -24.074
-0.1269 3.524  -2.142 -22.180
-0.1349 3.851  -2.699 -23.373
0.1301 0.988  -4.302 -24.160
0.1301 2.152  -2.294 -20.570
0.0441 -0.721  -3.209 -21.969
0.0441 -0.064  -4.941 -21.620
0.0441 0.190  -3.593 -20.510
0.1301 3.282  -3.779 -25.154
0.1301 4.207  -1.439 -21.630
0.1301 4.700  -2.406 -23.896
-0.0772 6.188  -9.140 -14.827
-0.1309 5.730  -9.840 -13.695
-0.1309 5.290  -8.756 -15.824
-0.0537 7.667  -9.118 -15.126
-0.1269 4.371 -10.137 -13.614
-0.1269 3.953  -9.080 -15.728
-0.1349 3.472  -9.716 -14.592
0.1301 6.384 -10.236 -12.949
0.1301 5.597  -8.320 -16.735
0.0441 7.771  -9.401 -16.116
0.0441 8.115  -8.095 -15.172
0.0441 8.268  -9.686 -14.397
0.1301 3.985 -10.723 -12.745
0.1301 3.220  -8.772 -16.496
0.1301 2.458 -10.056 -14.529
-0.0772 12.385   5.787  23.566
-0.1309 13.537   6.613  23.600
-0.1309 11.180   6.261  23.048
-0.0537 12.494   4.306  24.012
-0.1269 13.506   7.967  23.249
-0.1269 11.134   7.617  22.716
-0.1349 12.257   8.472  22.877
0.1301 14.481   6.163  23.921
0.1301 10.352   5.681  23.023
0.0441 12.990   3.645  23.282
0.0441 12.940   4.260  25.032
0.0441 11.466   3.929  24.078
0.1301 14.492   8.504  23.234
0.1301 10.161   8.087  22.420
0.1301 12.156   9.513  22.678
-0.0772 8.389   6.269  -3.595
-0.1309 8.204   6.114  -4.987
-0.1309 8.321   7.554  -3.064
-0.0537 8.829   5.070  -2.685
-0.1269 7.954   7.239  -5.802
-0.1269 8.050   8.700  -3.882
-0.1349 7.811   8.478  -5.238
0.1301 8.230   5.117  -5.439
0.1301 8.596   7.752  -2.008
0.0441 8.770   4.073  -3.223
0.0441 9.822   5.121  -2.215
0.0441 8.009   5.097  -1.919
0.1301 7.792   7.133  -6.873
0.1301 7.979   9.733  -3.446
0.1301 7.557   9.356  -5.856
-0.0772 26.869   0.930  -6.322
-0.1309 26.501   2.200  -6.858
-0.1309 25.961   0.292  -5.492
-0.0537 28.111   0.255  -6.835
-0.1269 25.275   2.767  -6.585
-0.1269 24.734   0.866  -5.211
-0.1349 24.379   2.136  -5.690
0.1301 27.140   2.685  -7.532
0.1301 26.152  -0.693  -5.065
0.0441 28.976   0.581  -6.217
0.0441 28.084  -0.876  -6.860
0.0441 28.364   0.608  -7.852
0.1301 24.991   3.818  -6.824
0.1301 23.977   0.347  -4.613
0.1301 23.395   2.545  -5.416
-0.0772 -5.493 -21.409  -6.114
-0.1309 -5.705 -20.516  -7.154
-0.1309 -4.917 -22.642  -6.327
-0.0537 -5.903 -21.089  -4.687
-0.1269 -5.324 -20.825  -8.459
-0.1269 -4.302 -22.836  -7.535
-0.1349 -4.515 -21.944  -8.622
0.1301 -6.229 -19.633  -6.945
0.1301 -4.762 -23.344  -5.576
0.0441 -6.906 -21.477  -4.452
0.0441 -5.308 -21.632  -4.001
0.0441 -5.935 -20.031  -4.457
0.1301 -5.563 -20.095  -9.250
0.1301 -3.712 -23.774  -7.660
0.1301 -4.043 -22.202  -9.574
-0.0772 18.354 -14.375 -18.544
-0.1309 18.266 -13.760 -17.276
-0.1309 17.162 -14.661 -19.176
-0.0537 19.741 -14.797 -19.136
-0.1269 17.056 -13.336 -16.757
-0.1269 15.926 -14.253 -18.690
-0.1349 15.862 -13.552 -17.469
0.1301 19.069 -13.606 -16.627
0.1301 17.211 -15.156 -20.114
0.0441 19.636 -15.710 -19.653
0.0441 20.186 -14.089 -19.837
0.0441 20.488 -14.956 -18.384
0.1301 17.169 -12.885 -15.782
0.1301 15.105 -14.499 -19.320
0.1301 14.989 -13.365 -16.970
-0.0772 8.402 -21.731  -6.892
-0.1309 8.742 -21.073  -5.664
-0.1309 9.345 -21.835  -7.905
-0.0537 6.982 -22.258  -6.956
-0.1269 10.009 -20.402  -5.609
-0.1269 10.571 -21.168  -7.849
-0.1349 10.905 -20.424  -6.674
0.1301 8.071 -20.995  -4.866
0.1301 9.009 -22.329  -8.877
0.0441 6.411 -21.675  -7.722
0.0441 7.038 -23.274  -7.339
0.0441 6.471 -22.274  -6.016
0.1301 10.348 -19.758  -4.797
0.1301 11.182 -21.234  -8.699
0.1301 11.806 -19.815  -6.636
-0.0772 -0.213 -20.582   0.345
-0.1309 -0.878 -19.474  -0.131
-0.1309 -0.418 -20.844   1.751
-0.0537 0.404 -21.537  -0.635
-0.1269 -1.496 -18.545   0.686
-0.1269 -0.958 -19.889   2.615
-0.1349 -1.478 -18.747   2.062
0.1301 -0.936 -19.274  -1.177
0.1301 0.001 -21.813   2.047
0.0441 0.374 -22.599  -0.279
0.0441 -0.199 -21.566  -1.503
0.0441 1.419 -21.327  -1.026
0.1301 -1.911 -17.671   0.209
0.1301 -1.056 -20.011   3.730
0.1301 -1.753 -17.958   2.699
-0.0772 7.637  -3.942   9.693
-0.1309 7.413  -5.119  10.407
-0.1309 8.223  -2.794  10.315
-0.0537 7.224  -4.092   8.184
-0.1269 7.723  -5.137  11.787
-0.1269 8.581  -2.862  11.680
-0.1349 8.302  -3.991  12.432
0.1301 7.063  -5.990   9.874
0.1301 8.357  -1.915   9.733
0.0441 6.416  -3.362   7.991
0.0441 8.081  -3.862   7.615
0.0441 6.748  -5.099   8.024
0.1301 7.609  -6.074  12.360
0.1301 9.063  -1.978  12.171
0.1301 8.500  -3.998  13.500
-0.0772 8.229  -4.204   2.178
-0.1309 7.764  -4.660   3.434
-0.1309 7.752  -2.996   1.698
-0.0537 9.105  -5.097   1.325
-0.1269 7.025  -3.801   4.284
-0.1269 6.943  -2.196   2.508
-0.1349 6.590  -2.562   3.823
0.1301 8.021  -5.620   3.788
0.1301 8.068  -2.728   0.692
0.0441 8.480  -5.818   0.864
0.0441 9.658  -4.460   0.626
0.0441 9.917  -5.588   1.869
0.1301 6.814  -4.095   5.347
0.1301 6.654  -1.204   2.060
0.1301 6.098  -1.937   4.532
-0.0772 1.642 -13.364  -9.767
-0.1309 2.811 -13.479  -8.999
-0.1309 0.980 -14.540 -10.088
-0.0537 1.301 -12.083 -10.485
-0.1269 3.107 -14.682  -8.305
-0.1269 1.313 -15.775  -9.440
-0.1349 2.356 -15.816  -8.482
0.1301 3.263 -12.533  -8.730
0.1301 0.120 -14.478 -10.794
0.0441 2.085 -11.666 -11.175
0.0441 0.359 -12.229 -11.074
0.0441 1.035 -11.413  -9.704
0.1301 3.951 -14.677  -7.606
0.1301 0.718 -16.679  -9.677
0.1301 2.595 -16.731  -7.963
-0.0772 17.393  -3.575  -7.403
-0.1309 17.728  -5.231  -7.739
-0.1309 17.345  -2.277  -8.456
-0.0537 17.119  -3.165  -5.963
-0.1269 17.916  -5.923  -9.263
-0.1269 17.477  -2.535 -10.150
-0.1349 17.851  -4.988 -10.722
0.1301 17.576  -5.833  -6.832
0.1301 17.310  -1.265  -8.046
0.0441 16.094  -3.320  -5.786
0.0441 17.634  -3.719  -5.160
0.0441 17.367  -2.120  -5.805
0.1301 18.014  -6.954  -9.374
0.1301 17.438  -1.728 -10.821
0.1301 17.875  -5.474 -11.702
-0.0772 -9.459 -11.563 -24.435
-0.1309 -8.282 -12.199 -24.148
-0.1309 -9.501 -10.152 -24.480
-0.0537 -10.720 -12.387 -24.642
-0.1269 -7.030 -11.494 -24.024
-0.1269 -8.370  -9.383 -24.258
-0.1349 -7.104 -10.045 -24.034
0.1301 -8.325 -13.250 -24.091
0.1301 -10.436  -9.656 -24.764
0.0441 -10.705 -12.890 -25.610
0.0441 -10.745 -13.212 -23.858
0.0441 -11.618 -11.833 -24.593
0.1301 -6.100 -12.015 -23.774
0.1301 -8.370  -8.319 -24.262
0.1301 -6.218  -9.468 -23.755
-0.0772 8.649 -12.183 -23.379
-0.1309 9.876 -12.798 -23.878
-0.1309 7.522 -13.029 -23.248
-0.0537 8.494 -10.719 -23.334
-0.1269 9.856 -14.179 -24.257
-0.1269 7.603 -14.407 -23.455
-0.1349 8.789 -15.014 -23.916
0.1301 10.748 -12.196 -24.009
0.1301 6.539 -12.633 -22.869
0.0441 9.091 -10.299 -22.530
0.0441 8.806 -10.381 -24.286
0.0441 7.407 -10.435 -23.161
0.1301 10.682 -14.695 -24.782
0.1301 6.663 -15.017 -23.346
0.1301 8.814 -16.071 -24.179
-0.0772 11.898  -0.061   0.898
-0.1309 12.573  -0.419  -0.276
-0.1309 12.313  -0.615   2.096
-0.0537 10.702   0.866   0.912
-0.1269 13.766  -1.171  -0.223
-0.1269 13.517  -1.316   2.195
-0.1349 14.272  -1.601   1.026
0.1301 12.300  -0.045  -1.260
0.1301 11.721  -0.511   3.010
0.0441 10.787   1.495   0.050
0.0441 9.726   0.258   0.906
0.0441 10.714   1.575   1.707
0.1301 14.291  -1.313  -1.131
0.1301 13.963  -1.439   3.163
0.1301 15.237  -2.049   1.089
-0.0772 5.097 -16.873   9.064
-0.1309 4.792 -16.358  10.375
-0.1309 6.183 -17.713   8.855
-0.0537 4.248 -16.460   7.865
-0.1269 5.635 -16.662  11.487
-0.1269 7.067 -17.938   9.972
-0.1349 6.784 -17.466  11.237
0.1301 3.898 -15.670  10.527
0.1301 6.459 -18.182   7.900
0.0441 4.853 -15.892   7.164
0.0441 3.756 -17.302   7.373
0.0441 3.503 -15.733   8.133
0.1301 5.715 -16.222  12.483
0.1301 7.992 -18.435   9.755
0.1301 7.582 -17.584  12.001
-0.0772 6.443  -2.134  17.077
-0.1309 5.167  -2.275  16.591
-0.1309 7.560  -1.734  16.257
-0.0537 6.655  -2.433  18.565
-0.1269 4.984  -2.210  15.192
-0.1269 7.273  -1.426  14.945
-0.1349 6.054  -1.808  14.364
0.1301 4.348  -2.514  17.262
0.1301 8.505  -1.513  16.701
0.0441 6.154  -3.411  18.828
0.0441 7.682  -2.599  18.744
0.0441 6.399  -1.605  19.206
0.1301 3.990  -2.337  14.749
0.1301 8.067  -1.031  14.271
0.1301 5.942  -1.751  13.263
-0.0772 10.061 -16.759  -0.683
-0.1309 10.030 -17.105  -2.026
-0.1309 9.114 -17.391   0.195
-0.0537 11.089 -15.734  -0.283
-0.1269 8.985 -17.867  -2.577
-0.1269 8.097 -18.189  -0.338
-0.1349 8.110 -18.552  -1.697
0.1301 10.611 -16.568  -2.840
0.1301 8.973 -17.159   1.225
0.0441 10.528 -14.876   0.130
0.0441 11.882 -16.171   0.375
0.0441 11.640 -15.359  -1.157
0.1301 8.906 -17.996  -3.652
0.1301 7.346 -18.598   0.327
0.1301 7.315 -19.203  -1.997
-0.0772 16.371  16.233   5.082
-0.1309 16.276  14.845   4.921
-0.1309 16.016  17.056   4.023
-0.0537 16.783  16.815   6.418
-0.1269 15.810  14.255   3.722
-0.1269 15.483  16.508   2.895
-0.1349 15.405  15.090   2.666
0.1301 16.649  14.176   5.625
0.1301 16.092  18.119   4.151
0.0441 16.712  16.194   7.297
0.0441 17.828  17.112   6.271
0.0441 16.157  17.656   6.639
0.1301 16.024  13.221   3.533
0.1301 15.155  17.124   2.102
0.1301 15.199  14.701   1.714
-0.0772 6.203 -19.498 -13.725
-0.1309 5.516 -18.291 -13.726
-0.1309 7.581 -19.486 -14.094
-0.0537 5.400 -20.826 -13.341
-0.1269 6.150 -17.106 -14.233
-0.1269 8.279 -18.311 -14.487
-0.1349 7.505 -17.099 -14.548
0.1301 4.495 -18.250 -13.370
0.1301 8.083 -20.413 -13.920
0.0441 5.824 -21.693 -13.778
0.0441 5.187 -21.075 -12.288
0.0441 4.443 -20.838 -13.869
0.1301 5.522 -16.232 -14.231
0.1301 9.302 -18.271 -14.618
0.1301 7.999 -16.163 -14.674
-0.0772 24.859 -10.763  -5.221
-0.1309 24.015 -10.812  -4.050
-0.1309 24.853 -11.843  -6.092
-0.0537 25.807  -9.623  -5.613
-0.1269 23.160 -11.898  -3.864
-0.1269 24.015 -12.985  -5.896
-0.1349 23.194 -12.967  -4.765
0.1301 23.951 -10.020  -3.294
0.1301 25.494 -11.800  -6.972
0.0441 26.229  -9.781  -6.634
0.0441 25.345  -8.675  -5.604
0.0441 26.663  -9.481  -4.869
0.1301 22.630 -11.982  -2.925
0.1301 23.838 -13.662  -6.689
0.1301 22.501 -13.781  -4.584
-0.0772 14.294  12.287 -10.000
-0.1309 14.457  11.963  -8.646
-0.1309 15.446  12.512 -10.794
-0.0537 12.950  12.247 -10.634
-0.1269 15.729  11.926  -8.028
-0.1269 16.724  12.670 -10.201
-0.1349 16.856  12.389  -8.810
0.1301 13.518  11.660  -8.118
0.1301 15.417  12.645 -11.882
0.0441 12.366  11.459 -10.067
0.0441 12.494  13.261 -10.555
0.0441 12.980  11.911 -11.734
0.1301 15.887  11.571  -7.064
0.1301 17.490  13.000 -10.852
0.1301 17.870  12.322  -8.295
-0.0772 20.945  -3.355  12.399
-0.1309 20.009  -4.344  12.761
-0.1309 20.500  -2.053  12.209
-0.0537 22.395  -3.771  12.154
-0.1269 18.624  -4.034  13.035
-0.1269 19.126  -1.752  12.483
-0.1349 18.149  -2.677  12.919
0.1301 20.406  -5.320  12.786
0.1301 21.203  -1.242  11.888
0.0441 22.617  -4.332  11.203
0.0441 22.933  -2.792  12.106
0.0441 22.813  -4.332  13.032
0.1301 17.969  -4.725  13.449
0.1301 18.719  -0.760  12.209
0.1301 17.077  -2.466  13.158
-0.0772 18.250  -7.537  -3.224
-0.1309 16.877  -7.165  -3.158
-0.1309 18.700  -8.558  -2.335
-0.0537 19.169  -6.718  -4.043
-0.1269 16.006  -7.848  -2.422
-0.1269 17.793  -9.220  -1.516
-0.1349 16.481  -8.802  -1.538
0.1301 16.474  -6.276  -3.729
0.1301 19.774  -8.784  -2.205
0.0441 18.688  -5.784  -4.350
0.0441 20.148  -6.469  -3.585
0.0441 19.385  -7.109  -5.114
0.1301 14.937  -7.522  -2.469
0.1301 18.164  -9.984  -0.863
0.1301 15.834  -9.215  -0.784
-0.0772 22.398 -11.160 -15.422
-0.1309 23.172 -11.017 -14.245
-0.1309 21.277 -12.026 -15.343
-0.0537 22.837 -10.693 -16.713
-0.1269 22.775 -11.446 -13.002
-0.1269 20.881 -12.577 -14.121
-0.1349 21.604 -12.238 -12.929
0.1301 24.108 -10.437 -14.211
0.1301 20.745 -12.242 -16.198
0.0441 23.933 -10.898 -16.770
0.0441 22.324 -11.180 -17.494
0.0441 22.587  -9.615 -16.858
0.1301 23.248 -11.159 -12.020
0.1301 20.159 -13.390 -14.072
0.1301 21.245 -12.635 -12.008
-0.0772 -6.546 -26.290  -9.403
-0.1309 -7.614 -26.924  -8.683
-0.1309 -5.306 -26.308  -8.835
-0.0537 -6.686 -25.677 -10.767
-0.1269 -7.322 -27.598  -7.446
-0.1269 -5.047 -26.859  -7.538
-0.1349 -6.036 -27.621  -6.851
0.1301 -8.621 -26.962  -9.140
0.1301 -4.593 -25.798  -9.505
0.0441 -7.631 -25.081 -10.649
0.0441 -5.783 -25.181 -11.021
0.0441 -6.718 -26.522 -11.517
0.1301 -8.104 -28.108  -7.007
0.1301 -3.958 -26.816  -7.155
0.1301 -5.711 -28.275  -6.005
-0.0772 -4.176   3.516  24.099
-0.1309 -5.068   3.191  25.157
-0.1309 -4.591   3.219  22.799
-0.0537 -2.794   4.043  24.357
-0.1269 -6.349   2.727  24.877
-0.1269 -5.863   2.717  22.471
-0.1349 -6.725   2.469  23.527
0.1301 -4.828   3.337  26.183
0.1301 -3.940   3.355  21.966
0.0441 -2.639   4.501  25.401
0.0441 -2.108   3.175  24.330
0.0441 -2.503   4.791  23.616
0.1301 -7.075   2.517  25.643
0.1301 -6.101   2.560  21.382
0.1301 -7.736   2.178  23.239
-0.0772 25.373   6.666  -1.905
-0.1309 24.759   7.806  -2.449
-0.1309 25.941   5.705  -2.819
-0.0537 25.556   6.350  -0.400
-0.1269 24.681   8.037  -3.805
-0.1269 25.841   5.904  -4.228
-0.1349 25.158   7.046  -4.690
0.1301 24.473   8.535  -1.662
0.1301 26.433   4.841  -2.451
0.0441 24.685   6.807   0.035
0.0441 25.605   5.288  -0.052
0.0441 26.411   6.858   0.037
0.1301 24.271   9.003  -4.146
0.1301 26.341   5.171  -4.887
0.1301 25.065   7.216  -5.711
-0.0772 24.687   4.002   3.673
-0.1309 25.666   3.687   2.648
-0.1309 23.905   2.981   4.241
-0.0537 24.507   5.464   3.997
-0.1269 25.683   2.404   2.128
-0.1269 23.988   1.659   3.706
-0.1349 24.946   1.375   2.701
0.1301 26.214   4.455   2.102
0.1301 23.186   3.152   5.038
0.0441 23.862   5.959   3.284
0.0441 24.005   5.661   4.939
0.0441 25.426   6.008   3.999
0.1301 26.384   2.148   1.285
0.1301 23.502   0.830   4.056
0.1301 24.995   0.425   2.140
-0.0772 0.516  17.158  -2.004
-0.1309 0.588  17.870  -3.233
-0.1309 0.173  15.817  -2.050
-0.0537 1.001  17.776  -0.693
-0.1269 0.373  17.185  -4.461
-0.1269 0.131  15.137  -3.247
-0.1349 0.191  15.752  -4.475
0.1301 0.878  18.913  -3.195
0.1301 0.024  15.211  -1.150
0.0441 2.071  17.606  -0.504
0.0441 0.834  18.864  -0.680
0.0441 0.379  17.466   0.164
0.1301 0.406  17.682  -5.405
0.1301 0.118  14.048  -3.136
0.1301 -0.024  15.252  -5.397
-0.0772 23.875  -7.163   4.469
-0.1309 23.193  -6.150   5.190
-0.1309 24.857  -7.964   5.065
-0.0537 23.598  -7.426   2.932
-0.1269 23.450  -5.949   6.596
-0.1269 25.129  -7.714   6.474
-0.1349 24.548  -6.606   7.162
0.1301 22.415  -5.574   4.624
0.1301 25.331  -8.718   4.544
0.0441 22.623  -7.892   2.669
0.0441 23.459  -6.446   2.357
0.0441 24.399  -7.922   2.302
0.1301 22.837  -5.246   7.014
0.1301 25.817  -8.331   7.073
0.1301 24.704  -6.423   8.209
-0.0772 4.471  16.836  -5.966
-0.1309 5.209  18.003  -5.782
-0.1309 4.114  16.449  -7.303
-0.0537 4.058  16.006  -4.783
-0.1269 5.567  18.743  -6.969
-0.1269 4.294  17.274  -8.392
-0.1349 5.163  18.350  -8.278
0.1301 5.387  18.348  -4.816
0.1301 3.719  15.477  -7.482
0.0441 4.589  16.360  -3.878
0.0441 3.009  16.049  -4.538
0.0441 4.447  15.003  -4.923
0.1301 6.188  19.609  -6.904
0.1301 4.005  16.933  -9.401
0.1301 5.459  18.844  -9.136
-0.0772 -21.275 -12.873   3.978
-0.1309 -22.134 -12.530   2.935
-0.1309 -20.126 -13.628   3.622
-0.0537 -21.651 -12.510   5.411
-0.1269 -21.854 -12.782   1.565
-0.1269 -19.778 -13.805   2.256
-0.1349 -20.722 -13.566   1.251
0.1301 -23.128 -12.086   3.021
0.1301 -19.439 -14.033   4.350
0.0441 -21.607 -13.452   5.989
0.0441 -21.033 -11.730   5.863
0.0441 -22.723 -12.235   5.521
0.1301 -22.627 -12.616   0.802
0.1301 -18.763 -14.211   2.069
0.1301 -20.440 -13.736   0.272
-0.0772 15.298  -9.288   7.396
-0.1309 15.544  -9.076   6.031
-0.1309 15.247 -10.548   7.924
-0.0537 15.012  -8.092   8.273
-0.1269 15.872 -10.155   5.188
-0.1269 15.535 -11.661   7.062
-0.1349 15.859 -11.423   5.744
0.1301 15.559  -8.035   5.614
0.1301 15.112 -10.731   8.976
0.0441 14.253  -7.547   7.801
0.0441 14.675  -8.366   9.280
0.0441 15.862  -7.442   8.354
0.1301 16.101  -9.911   4.157
0.1301 15.596 -12.586   7.494
0.1301 16.059 -12.237   5.037
-0.0772 13.969 -16.071 -15.915
-0.1309 13.324 -15.380 -14.854
-0.1309 13.181 -16.329 -17.053
-0.0537 15.451 -16.552 -15.910
-0.1269 12.034 -14.926 -14.955
-0.1269 11.845 -15.921 -17.147
-0.1349 11.237 -15.277 -16.032
0.1301 13.939 -15.093 -14.008
0.1301 13.676 -16.807 -17.907
0.0441 15.521 -17.344 -15.216
0.0441 15.891 -16.820 -16.923
0.0441 16.097 -15.751 -15.527
0.1301 11.585 -14.355 -14.173
0.1301 11.232 -16.176 -17.943
0.1301 10.201 -15.070 -16.049
-0.0772 27.899 -13.070  -6.801
-0.1309 28.510 -11.929  -6.380
-0.1309 27.781 -13.234  -8.209
-0.0537 27.321 -14.136  -5.812
-0.1269 29.036 -10.954  -7.300
-0.1269 28.355 -12.368  -9.161
-0.1349 28.947 -11.132  -8.647
0.1301 28.527 -11.691  -5.295
0.1301 27.352 -14.201  -8.435
0.0441 27.123 -15.043  -6.408
0.0441 28.015 -14.425  -5.084
0.0441 26.476 -13.867  -5.231
0.1301 29.373 -10.024  -6.829
0.1301 28.305 -12.556 -10.273
0.1301 29.279 -10.446  -9.393
-0.0772 11.406  -0.634 -25.563
-0.1309 11.388  -0.940 -26.966
-0.1309 11.245  -1.641 -24.686
-0.0537 11.480   0.826 -25.196
-0.1269 11.395  -2.279 -27.380
-0.1269 11.175  -2.996 -25.096
-0.1349 11.441  -3.320 -26.462
0.1301 11.472  -0.119 -27.681
0.1301 11.141  -1.421 -23.651
0.0441 10.465   1.230 -25.068
0.0441 11.893   1.189 -24.244
0.0441 12.013   1.372 -25.954
0.1301 11.395  -2.454 -28.475
0.1301 11.003  -3.831 -24.357
0.1301 11.576  -4.344 -26.851
-0.0772 17.216  -7.457 -21.033
-0.1309 17.342  -7.969 -22.344
-0.1309 17.390  -8.381 -19.971
-0.0537 17.119  -5.991 -20.815
-0.1269 17.672  -9.276 -22.592
-0.1269 17.675  -9.740 -20.191
-0.1349 17.822 -10.184 -21.531
0.1301 17.135  -7.373 -23.262
0.1301 17.274  -8.094 -18.932
0.0441 16.127  -5.543 -21.190
0.0441 17.055  -5.760 -19.806
0.0441 17.945  -5.413 -21.278
0.1301 17.866  -9.525 -23.613
0.1301 17.655 -10.369 -19.306
0.1301 18.025 -11.255 -21.763
-0.0772 15.626  -3.166  -2.563
-0.1309 16.525  -4.084  -1.991
-0.1309 16.099  -1.878  -2.934
-0.0537 14.147  -3.514  -2.728
-0.1269 17.899  -3.794  -1.988
-0.1269 17.472  -1.616  -2.900
-0.1349 18.364  -2.602  -2.419
0.1301 16.173  -5.005  -1.611
0.1301 15.386  -1.127  -3.219
0.0441 13.982  -3.820  -3.786
0.0441 13.962  -4.339  -2.044
0.0441 13.401  -2.690  -2.494
0.1301 18.671  -4.514  -1.625
0.1301 17.885  -0.621  -3.235
0.1301 19.423  -2.431  -2.373
-0.0772 9.112  -7.251 -18.990
-0.1309 8.818  -8.621 -19.166
-0.1309 8.531  -6.271 -19.913
-0.0537 10.056  -6.744 -17.847
-0.1269 7.892  -8.994 -20.166
-0.1269 7.678  -6.626 -20.876
-0.1349 7.315  -7.974 -20.989
0.1301 9.185  -9.312 -18.546
0.1301 8.865  -5.259 -19.802
0.0441 10.085  -7.479 -17.050
0.0441 11.017  -6.608 -18.314
0.0441 9.811  -5.765 -17.606
0.1301 7.659 -10.040 -20.320
0.1301 7.250  -5.884 -21.589
0.1301 6.735  -8.402 -21.822
-0.0772 -11.074   6.164  -5.167
-0.1309 -10.093   5.183  -4.839
-0.1309 -11.160   6.552  -6.474
-0.0537 -12.060   6.775  -4.206
-0.1269 -9.184   4.633  -5.787
-0.1269 -10.296   6.055  -7.486
-0.1349 -9.203   5.149  -7.101
0.1301 -10.078   4.759  -3.811
0.1301 -11.989   7.171  -6.826
0.0441 -13.126   6.374  -4.384
0.0441 -11.685   6.573  -3.155
0.0441 -12.079   7.847  -4.251
0.1301 -8.494   3.880  -5.526
0.1301 -10.501   6.284  -8.518
0.1301 -8.534   4.707  -7.834
-0.0772 21.732   9.717  -7.915
-0.1309 20.930  10.403  -6.954
-0.1309 23.116   9.604  -7.707
-0.0537 21.104   9.209  -9.221
-0.1269 21.524  11.032  -5.873
-0.1269 23.671  10.203  -6.581
-0.1349 22.881  10.929  -5.704
0.1301 19.827  10.531  -7.208
0.1301 23.742   9.011  -8.385
0.0441 21.881   8.867  -9.913
0.0441 20.474   8.394  -9.151
0.0441 20.491   9.956  -9.625
0.1301 20.854  11.496  -5.057
0.1301 24.741  10.247  -6.352
0.1301 23.275  11.411  -4.816
-0.0772 19.396 -18.971   5.335
-0.1309 19.424 -18.570   3.993
-0.1309 19.468 -18.033   6.378
-0.0537 19.264 -20.504   5.686
-0.1269 19.514 -17.227   3.676
-0.1269 19.740 -16.704   6.077
-0.1349 19.722 -16.283   4.712
0.1301 19.416 -19.298   3.211
0.1301 19.620 -18.256   7.435
0.0441 18.613 -21.011   4.957
0.0441 20.268 -20.988   5.756
0.0441 18.744 -20.688   6.666
0.1301 19.500 -17.019   2.583
0.1301 19.871 -15.936   6.871
0.1301 19.986 -15.271   4.412
-0.0772 13.516  -3.937 -17.992
-0.1309 13.235  -3.015 -19.012
