1567

-0.1269 -14.864  19.221 -16.151
-0.1269 -13.274  17.524 -15.574
-0.1349 -13.591  18.838 -15.780
0.1301 -16.826  18.459 -16.861
0.1301 -14.012  15.487 -15.687
0.0441 -17.510  16.380 -16.805
0.0441 -16.294  15.626 -17.834
0.0441 -16.509  14.960 -16.180
0.1301 -15.093  20.283 -16.300
0.1301 -12.262  17.223 -15.205
0.1301 -12.818  19.577 -15.641
-0.0772 7.193  22.134 -17.097
-0.1309 8.353  22.926 -17.216
-0.1309 7.147  20.864 -17.657
-0.0537 5.928  22.648 -16.459
-0.1269 9.408  22.559 -18.093
-0.1269 8.217  20.417 -18.412
-0.1349 9.318  21.265 -18.643
0.1301 8.485  23.885 -16.815
0.1301 6.276  20.233 -17.484
0.0441 5.007  22.454 -17.068
0.0441 5.625  22.233 -15.574
0.0441 5.899  23.739 -16.325
0.1301 10.246  23.179 -18.282
0.1301 8.217  19.387 -18.861
0.1301 10.000  20.903 -19.366
-0.0772 -18.166  -3.097 -22.208
-0.1309 -19.279  -2.642 -22.867
-0.1309 -17.312  -3.978 -22.858
-0.0537 -17.909  -2.609 -20.755
-0.1269 -19.536  -2.998 -24.197
-0.1269 -17.590  -4.303 -24.224
-0.1349 -18.729  -3.888 -24.844
0.1301 -19.932  -2.024 -22.262
0.1301 -16.349  -4.300 -22.453
0.0441 -17.677  -3.368 -20.006
0.0441 -16.989  -2.000 -20.872
0.0441 -18.726  -1.998 -20.330
0.1301 -20.417  -2.612 -24.695
0.1301 -16.964  -5.039 -24.775
0.1301 -19.043  -4.179 -25.861
-0.0772 -8.773  15.896 -10.797
-0.1309 -9.360  16.055 -12.086
-0.1309 -7.973  16.919 -10.245
-0.0537 -8.944  14.635  -9.967
-0.1269 -9.132  17.246 -12.765
-0.1269 -7.896  18.171 -10.939
-0.1349 -8.485  18.296 -12.214
0.1301 -9.962  15.268 -12.506
0.1301 -7.446  16.691  -9.299
0.0441 -8.269  14.661  -9.084
0.0441 -9.958  14.578  -9.576
0.0441 -8.622  13.679 -10.532
0.1301 -9.639  17.302 -13.762
0.1301 -7.287  18.969 -10.575
0.1301 -8.344  19.193 -12.820
-0.0772 -12.698  27.076  -0.127
-0.1309 -14.116  26.934  -0.226
-0.1309 -11.918  26.278  -0.968
-0.0537 -12.032  28.021   0.800
-0.1269 -14.692  25.978  -1.129
-0.1269 -12.401  25.385  -1.883
-0.1349 -13.811  25.251  -2.013
0.1301 -14.748  27.613   0.405
0.1301 -10.819  26.337  -0.946
0.0441 -12.708  28.420   1.559
0.0441 -11.222  27.497   1.352
0.0441 -11.585  28.916   0.355
0.1301 -15.832  25.886  -1.152
0.1301 -11.785  24.976  -2.590
0.1301 -14.260  24.414  -2.567
-0.0772 6.443  10.034 -29.380
-0.1309 7.376   9.675 -28.416
-0.1309 5.858   9.112 -30.250
-0.0537 5.899  11.462 -29.404
-0.1269 7.795   8.345 -28.301
-0.1269 6.258   7.740 -30.126
-0.1349 7.367   7.384 -29.258
0.1301 7.921  10.410 -27.764
0.1301 5.048   9.413 -30.852
0.0441 4.920  11.524 -28.971
0.0441 6.589  12.186 -28.916
0.0441 5.779  11.904 -30.402
0.1301 8.594   8.113 -27.662
0.1301 6.036   7.111 -30.888
0.1301 7.926   6.398 -29.293
-0.0772 -4.582  19.261  -4.823
-0.1309 -5.525  18.280  -4.652
-0.1309 -4.425  19.773  -6.143
-0.0537 -3.965  19.981  -3.591
-0.1269 -6.147  17.646  -5.744
-0.1269 -5.098  19.276  -7.200
-0.1349 -5.954  18.170  -7.048
0.1301 -5.805  18.015  -3.622
0.1301 -3.787  20.700  -6.279
0.0441 -4.122  21.039  -3.548
0.0441 -4.428  19.629  -2.653
0.0441 -2.864  19.750  -3.611
0.1301 -6.975  16.954  -5.554
0.1301 -5.003  19.764  -8.210
0.1301 -6.579  17.832  -7.896
-0.0772 -10.480  21.691   1.821
-0.1309 -11.232  21.889   2.943
-0.1309 -9.143  21.282   2.014
-0.0537 -11.083  21.776   0.480
-0.1269 -10.701  21.990   4.239
-0.1269 -8.580  21.215   3.291
-0.1349 -9.322  21.690   4.408
0.1301 -12.244  22.124   2.842
0.1301 -8.468  20.974   1.214
0.0441 -12.145  21.581   0.433
0.0441 -10.946  22.808   0.090
0.0441 -10.609  21.069  -0.250
0.1301 -11.293  22.285   5.147
0.1301 -7.559  21.004   3.359
0.1301 -8.808  21.665   5.339
-0.0772 -4.856   4.089 -11.867
-0.1309 -5.759   3.927 -10.776
-0.1309 -4.989   5.242 -12.651
-0.0537 -3.648   3.141 -12.056
-0.1269 -6.736   4.860 -10.507
-0.1269 -6.058   6.127 -12.472
-0.1349 -6.920   5.921 -11.400
0.1301 -5.574   3.082 -10.106
0.1301 -4.252   5.369 -13.439
0.0441 -3.517   2.934 -13.127
0.0441 -2.699   3.594 -11.719
0.0441 -3.809   2.184 -11.552
0.1301 -7.501   4.668  -9.786
0.1301 -6.165   6.895 -13.210
0.1301 -7.792   6.551 -11.362
-0.0772 -1.648  19.851 -14.058
-0.1309 -2.081  21.136 -13.703
-0.1309 -2.277  19.146 -15.123
-0.0537 -0.399  19.125 -13.460
-0.1269 -3.099  21.759 -14.439
-0.1269 -3.280  19.716 -15.821
-0.1349 -3.680  21.029 -15.469
0.1301 -1.590  21.655 -12.906
0.1301 -1.947  18.146 -15.418
0.0441 0.102  19.612 -12.635
0.0441 -0.716  18.179 -12.996
0.0441 0.350  19.018 -14.214
0.1301 -3.635  22.701 -14.142
0.1301 -3.714  19.130 -16.607
0.1301 -4.509  21.396 -16.013
-0.0772 1.676  14.096 -25.681
-0.1309 1.236  14.014 -27.009
-0.1309 1.448  13.016 -24.844
-0.0537 2.453  15.326 -25.199
-0.1269 0.495  12.906 -27.514
-0.1269 0.613  11.972 -25.269
-0.1349 0.225  11.881 -26.595
0.1301 1.482  14.879 -27.612
0.1301 1.799  13.049 -23.765
0.0441 2.978  14.958 -24.314
0.0441 3.085  15.709 -25.992
0.0441 1.804  16.228 -25.018
0.1301 0.105  12.941 -28.510
0.1301 0.452  11.171 -24.568
0.1301 -0.288  11.006 -26.994
-0.0772 -26.032   0.947 -11.829
-0.1309 -26.382  -0.013 -12.731
-0.1309 -25.822   2.266 -12.278
-0.0537 -25.821   0.490 -10.403
-0.1269 -26.434   0.211 -14.121
-0.1269 -25.916   2.569 -13.694
-0.1349 -26.218   1.493 -14.617
0.1301 -26.556  -1.001 -12.428
0.1301 -25.461   2.951 -11.598
0.0441 -25.123   1.159  -9.919
0.0441 -26.807   0.471  -9.932
0.0441 -25.422  -0.512 -10.234
0.1301 -26.790  -0.534 -14.829
0.1301 -25.795   3.472 -14.148
0.1301 -26.350   1.643 -15.584
-0.0772 -1.211  12.214  -4.654
-0.1309 -2.501  11.937  -4.192
-0.1309 -0.063  11.778  -3.999
-0.0537 -1.073  13.126  -5.890
-0.1269 -2.580  11.265  -2.972
-0.1269 -0.166  11.101  -2.832
-0.1349 -1.441  10.794  -2.277
0.1301 -3.380  12.287  -4.784
0.1301 0.889  12.105  -4.385
0.0441 -1.414  14.146  -5.598
0.0441 0.014  13.306  -6.083
0.0441 -1.585  12.842  -6.824
0.1301 -3.581  10.992  -2.614
0.1301 0.778  11.003  -2.296
0.1301 -1.588  10.379  -1.270
-0.0772 -12.601  19.006   6.937
-0.1309 -11.915  18.782   8.150
-0.1309 -11.854  19.006   5.768
-0.0537 -14.086  19.432   6.893
-0.1269 -10.599  18.324   8.154
-0.1269 -10.557  18.522   5.751
-0.1349 -9.930  18.203   6.921
0.1301 -12.552  18.832   9.060
0.1301 -12.321  19.231   4.842
0.0441 -14.640  19.176   7.851
0.0441 -14.117  20.552   6.942
0.0441 -14.676  18.898   6.096
0.1301 -10.151  18.103   9.145
0.1301 -10.041  18.380   4.803
0.1301 -8.897  17.780   6.922
-0.0772 -14.740   3.653  23.588
-0.1309 -13.808   2.669  23.060
-0.1309 -15.977   3.137  24.011
-0.0537 -14.396   5.129  23.648
-0.1269 -14.056   1.292  23.009
-0.1269 -16.252   1.790  23.961
-0.1349 -15.327   0.833  23.441
0.1301 -12.845   3.045  22.708
0.1301 -16.729   3.904  24.426
0.0441 -13.949   5.381  24.647
0.0441 -13.720   5.449  22.889
0.0441 -15.283   5.664  23.615
0.1301 -13.287   0.622  22.586
0.1301 -17.211   1.431  24.365
0.1301 -15.566  -0.225  23.267
-0.0772 8.736 -24.821 -10.304
-0.1309 7.672 -25.373  -9.597
-0.1309 9.474 -23.709  -9.789
-0.0537 9.270 -25.496 -11.596
-0.1269 7.232 -24.754  -8.433
-0.1269 9.047 -23.133  -8.594
-0.1349 7.889 -23.661  -7.916
0.1301 7.208 -26.238 -10.086
0.1301 10.424 -23.412 -10.320
0.0441 9.270 -24.793 -12.476
0.0441 10.289 -25.880 -11.399
0.0441 8.693 -26.305 -11.863
0.1301 6.309 -25.129  -7.938
0.1301 9.523 -22.285  -8.216
0.1301 7.603 -23.255  -6.960
-0.0772 -18.416  18.984 -12.552
-0.1309 -17.392  17.985 -12.441
-0.1309 -18.856  19.604 -11.380
-0.0537 -18.934  19.460 -13.899
-0.1269 -17.120  17.411 -11.229
-0.1269 -18.353  19.201 -10.111
-0.1349 -17.627  18.008 -10.062
0.1301 -16.978  17.468 -13.324
0.1301 -19.539  20.439 -11.531
0.0441 -19.799  20.144 -13.756
0.0441 -18.225  20.062 -14.421
0.0441 -19.289  18.633 -14.466
0.1301 -16.482  16.586 -11.180
0.1301 -18.696  19.706  -9.196
0.1301 -17.405  17.661  -9.095
-0.0772 -11.847   5.405 -13.801
-0.1309 -11.933   4.463 -14.811
-0.1309 -10.604   5.962 -13.537
-0.0537 -13.013   5.923 -13.031
-0.1269 -10.793   4.083 -15.477
-0.1269 -9.392   5.555 -14.179
-0.1349 -9.550   4.593 -15.194
0.1301 -12.906   4.041 -15.073
0.1301 -10.563   6.716 -12.772
0.0441 -13.668   5.105 -12.680
0.0441 -12.756   6.718 -12.231
0.0441 -13.571   6.465 -13.727
0.1301 -10.948   3.541 -16.433
0.1301 -8.461   6.006 -13.876
0.1301 -8.601   4.303 -15.736
-0.0772 -6.366  31.427  -5.382
-0.1309 -7.635  31.699  -4.843
-0.1309 -6.232  30.859  -6.689
-0.0537 -5.066  31.604  -4.626
-0.1269 -8.782  31.304  -5.474
-0.1269 -7.428  30.434  -7.394
-0.1349 -8.707  30.687  -6.747
0.1301 -7.797  32.246  -3.913
0.1301 -5.291  30.668  -7.153
0.0441 -5.277  31.734  -3.571
0.0441 -4.323  30.774  -4.663
0.0441 -4.518  32.462  -4.945
0.1301 -9.703  31.303  -4.986
0.1301 -7.363  29.996  -8.388
0.1301 -9.577  30.358  -7.168
-0.0772 -3.869  -4.802   0.936
-0.1309 -4.324  -3.485   0.978
-0.1309 -3.427  -5.327   2.218
-0.0537 -3.939  -5.661  -0.325
-0.1269 -4.453  -2.727   2.120
-0.1269 -3.413  -4.528   3.382
-0.1349 -4.014  -3.288   3.379
0.1301 -4.803  -3.163   0.103
0.1301 -3.030  -6.324   2.229
0.0441 -3.491  -5.156  -1.144
0.0441 -3.386  -6.647  -0.177
0.0441 -4.967  -5.716  -0.486
0.1301 -4.874  -1.735   2.054
0.1301 -3.060  -4.891   4.346
0.1301 -4.029  -2.762   4.338
-0.0772 -2.212  16.691 -25.072
-0.1309 -3.553  17.022 -25.340
-0.1309 -1.787  15.385 -25.334
-0.0537 -1.273  17.648 -24.438
-0.1269 -4.404  16.001 -25.829
-0.1269 -2.672  14.406 -25.934
-0.1349 -3.957  14.727 -26.203
0.1301 -4.021  18.040 -25.075
0.1301 -0.749  15.202 -25.123
0.0441 -1.136  17.401 -23.316
0.0441 -0.352  17.691 -25.023
0.0441 -1.717  18.659 -24.483
0.1301 -5.403  16.349 -25.957
0.1301 -2.279  13.501 -26.177
0.1301 -4.473  14.000 -26.750
-0.0772 -19.949  12.661 -11.683
-0.1309 -19.306  13.852 -12.026
-0.1309 -21.317  12.563 -11.989
-0.0537 -19.182  11.738 -10.774
-0.1269 -19.910  14.771 -12.885
-0.1269 -21.989  13.550 -12.793
-0.1349 -21.223  14.625 -13.351
0.1301 -18.279  14.008 -11.700
0.1301 -21.866  11.804 -11.471
0.0441 -19.019  12.252  -9.852
0.0441 -19.689  10.784 -10.542
0.0441 -18.145  11.533 -11.188
0.1301 -19.322  15.617 -13.217
0.1301 -23.061  13.453 -12.955
0.1301 -21.670  15.361 -14.014
-0.0772 -9.811   6.806  12.008
-0.1309 -10.685   5.715  12.179
-0.1309 -9.699   7.336  10.732
-0.0537 -8.934   7.350  13.134
-0.1269 -11.431   5.178  11.053
-0.1269 -10.530   6.933   9.655
-0.1349 -11.442   5.846   9.894
0.1301 -10.769   5.169  13.127
0.1301 -8.987   8.235  10.500
0.0441 -7.849   7.250  12.907
0.0441 -9.233   8.415  13.328
0.0441 -9.006   6.836  14.126
0.1301 -12.074   4.343  11.142
0.1301 -10.512   7.469   8.711
0.1301 -12.091   5.481   9.156
-0.0772 -7.365  -0.819  -2.328
-0.1309 -6.643  -1.582  -3.255
-0.1309 -8.596  -0.225  -2.763
-0.0537 -6.716  -0.546  -0.959
-0.1269 -7.074  -1.774  -4.534
-0.1269 -9.074  -0.516  -4.071
-0.1349 -8.301  -1.279  -4.950
0.1301 -5.636  -2.003  -3.071
0.1301 -9.118   0.479  -2.073
0.0441 -6.487  -1.458  -0.464
0.0441 -5.767   0.087  -1.117
0.0441 -7.433   0.035  -0.311
0.1301 -6.523  -2.329  -5.215
0.1301 -10.025  -0.067  -4.340
0.1301 -8.768  -1.348  -5.934
-0.0772 -6.510  11.193 -13.368
-0.1309 -6.173  10.063 -12.586
-0.1309 -5.662  11.644 -14.380
-0.0537 -7.886  11.829 -13.153
-0.1269 -4.958   9.307 -12.812
-0.1269 -4.462  11.016 -14.530
-0.1349 -4.132   9.914 -13.748
0.1301 -6.822   9.708 -11.755
0.1301 -5.954  12.560 -14.935
0.0441 -7.925  12.336 -12.176
0.0441 -7.918  12.577 -13.926
0.0441 -8.652  11.025 -13.161
0.1301 -4.625   8.489 -12.184
0.1301 -3.702  11.413 -15.242
0.1301 -3.150   9.514 -13.919
-0.0772 -16.997  15.620  -7.143
-0.1309 -16.110  16.433  -6.467
-0.1309 -18.367  15.580  -6.751
-0.0537 -16.469  14.962  -8.370
-0.1269 -16.553  17.212  -5.343
-0.1269 -18.733  16.068  -5.549
-0.1349 -17.864  16.972  -4.871
0.1301 -15.156  16.630  -6.877
0.1301 -19.107  14.970  -7.246
0.0441 -17.194  14.838  -9.166
0.0441 -15.808  15.626  -8.899
0.0441 -15.809  14.029  -8.188
0.1301 -15.897  18.075  -4.958
0.1301 -19.764  16.032  -5.255
0.1301 -18.200  17.543  -3.957
-0.0772 -13.752  15.205 -12.369
-0.1309 -15.108  14.545 -13.146
-0.1309 -12.425  14.331 -11.657
-0.0537 -13.684  16.719 -12.246
-0.1269 -15.470  12.876 -13.409
-0.1269 -12.418  12.603 -11.634
-0.1349 -14.453  11.630 -12.798
0.1301 -15.832  15.220 -13.559
0.1301 -11.682  14.940 -11.109
0.0441 -12.719  17.171 -12.304
0.0441 -14.420  17.126 -13.013
0.0441 -14.112  17.035 -11.292
0.1301 -16.480  12.628 -13.813
0.1301 -11.512  12.129 -11.116
0.1301 -14.737  10.625 -13.056
-0.0772 9.070  10.785   3.004
-0.1309 10.501  10.805   2.808
-0.1309 8.487   9.597   3.630
-0.0537 8.176  12.013   2.796
-0.1269 11.250   9.700   3.247
-0.1269 9.279   8.488   3.994
-0.1349 10.681   8.584   3.889
0.1301 11.075  11.624   2.379
0.1301 7.426   9.514   3.635
0.0441 7.276  11.845   2.074
0.0441 7.837  12.296   3.755
0.0441 8.776  12.829   2.278
0.1301 12.347   9.684   3.238
0.1301 8.751   7.650   4.398
0.1301 11.267   7.773   4.400
-0.0772 -13.716  17.878   0.658
-0.1309 -13.757  17.550  -0.718
-0.1309 -14.841  17.657   1.458
-0.0537 -12.391  18.347   1.194
-0.1269 -15.025  17.166  -1.218
-0.1269 -16.084  17.211   0.975
-0.1349 -16.189  16.988  -0.408
0.1301 -12.925  17.733  -1.437
0.1301 -14.712  17.868   2.546
0.0441 -11.687  18.523   0.365
0.0441 -12.449  19.303   1.805
0.0441 -11.976  17.682   1.886
0.1301 -15.058  16.978  -2.254
0.1301 -16.867  16.934   1.664
0.1301 -17.063  16.592  -0.896
-0.0772 -7.349  26.940  10.653
-0.1309 -8.586  27.425  11.185
-0.1309 -7.260  25.654  10.090
-0.0537 -6.149  27.840  10.788
-0.1269 -9.785  26.673  10.995
-0.1269 -8.426  24.868   9.974
-0.1349 -9.701  25.453  10.256
0.1301 -8.668  28.421  11.656
0.1301 -6.284  25.399   9.686
0.0441 -6.392  28.894  10.447
0.0441 -5.784  28.024  11.832
0.0441 -5.309  27.348  10.256
0.1301 -10.727  27.096  11.268
0.1301 -8.417  23.941   9.505
0.1301 -10.582  24.846  10.071
-0.0772 11.693  -4.250  19.439
-0.1309 12.274  -5.501  19.716
-0.1309 11.613  -3.339  20.485
-0.0537 11.082  -3.817  18.106
-0.1269 12.858  -5.828  20.976
-0.1269 12.113  -3.637  21.737
-0.1349 12.794  -4.867  22.000
0.1301 12.240  -6.357  19.000
0.1301 10.893  -2.583  20.380
0.0441 10.915  -2.743  18.046
0.0441 11.744  -4.057  17.286
0.0441 10.107  -4.275  17.883
0.1301 13.276  -6.743  21.119
0.1301 11.822  -3.009  22.602
0.1301 13.172  -4.921  22.977
-0.0772 -14.437   9.802 -18.210
-0.1309 -15.308  10.372 -17.302
-0.1309 -13.534   8.837 -17.759
-0.0537 -14.486  10.093 -19.697
-0.1269 -15.235  10.033 -15.934
-0.1269 -13.425   8.460 -16.420
-0.1349 -14.283   9.079 -15.509
0.1301 -16.041  11.090 -17.673
0.1301 -12.938   8.313 -18.454
0.0441 -14.498  11.155 -19.892
0.0441 -13.625   9.665 -20.222
0.0441 -15.421   9.677 -20.200
0.1301 -15.980  10.369 -15.220
0.1301 -12.725   7.689 -16.036
0.1301 -14.176   8.804 -14.418
-0.0772 -22.951  21.492   0.989
-0.1309 -23.056  20.700   2.126
-0.1309 -22.045  22.533   1.011
-0.0537 -23.856  21.222  -0.196
-0.1269 -22.234  20.850   3.221
-0.1269 -21.135  22.627   2.008
-0.1349 -21.245  21.834   3.164
0.1301 -23.794  19.973   2.262
0.1301 -21.872  23.160   0.139
0.0441 -23.406  20.538  -0.995
0.0441 -24.872  20.908   0.136
0.0441 -24.128  22.169  -0.735
0.1301 -22.346  20.124   4.069
0.1301 -20.389  23.465   1.995
0.1301 -20.547  21.877   4.059
-0.0772 -14.518  -7.937 -11.406
-0.1309 -13.683  -6.925 -10.829
-0.1309 -15.375  -8.674 -10.541
-0.0537 -14.493  -8.230 -12.925
-0.1269 -13.717  -6.583  -9.470
-0.1269 -15.357  -8.310  -9.154
-0.1349 -14.598  -7.291  -8.640
0.1301 -12.915  -6.468 -11.460
0.1301 -16.036  -9.510 -10.822
0.0441 -14.939  -9.135 -13.207
0.0441 -15.077  -7.380 -13.371
0.0441 -13.448  -8.251 -13.372
0.1301 -12.989  -5.849  -9.142
0.1301 -16.079  -8.786  -8.544
0.1301 -14.730  -6.978  -7.590
-0.0772 -2.179  -3.778 -17.019
-0.1309 -3.237  -4.676 -17.184
-0.1309 -1.902  -2.867 -18.032
-0.0537 -1.328  -3.753 -15.710
-0.1269 -3.970  -4.747 -18.397
-0.1269 -2.671  -2.866 -19.211
-0.1349 -3.708  -3.777 -19.444
0.1301 -3.431  -5.411 -16.429
0.1301 -1.104  -2.122 -17.858
0.0441 -1.485  -4.640 -15.021
0.0441 -0.260  -3.593 -15.903
0.0441 -1.691  -2.862 -15.277
0.1301 -4.768  -5.483 -18.568
0.1301 -2.472  -2.126 -19.975
0.1301 -4.438  -3.723 -20.320
-0.0772 -9.945  22.995  -8.581
-0.1309 -10.996  22.849  -9.509
-0.1309 -10.193  23.413  -7.310
-0.0537 -8.566  22.467  -8.959
-0.1269 -12.344  23.026  -9.063
-0.1269 -11.504  23.780  -6.934
-0.1349 -12.560  23.566  -7.824
0.1301 -10.795  22.436 -10.511
0.1301 -9.365  23.359  -6.624
0.0441 -7.992  22.228  -8.074
0.0441 -8.699  21.608  -9.649
0.0441 -7.835  23.279  -9.248
0.1301 -13.194  22.792  -9.726
0.1301 -11.775  24.132  -5.967
0.1301 -13.588  23.914  -7.546
-0.0772 8.945  -3.296 -10.380
-0.1309 9.641  -2.131 -10.039
-0.1309 8.718  -4.261  -9.387
-0.0537 8.555  -3.460 -11.801
-0.1269 10.094  -1.849  -8.754
-0.1269 9.268  -4.087  -8.099
-0.1349 9.838  -2.773  -7.757
0.1301 9.875  -1.418 -10.863
0.1301 8.160  -5.175  -9.628
0.0441 9.054  -4.431 -12.093
0.0441 7.463  -3.450 -11.774
0.0441 8.862  -2.637 -12.414
0.1301 10.496  -0.899  -8.503
0.1301 9.073  -4.801  -7.324
0.1301 9.996  -2.429  -6.767
-0.0772 -4.170 -25.279  -6.711
-0.1309 -4.468 -24.954  -8.062
-0.1309 -3.893 -26.636  -6.355
-0.0537 -4.289 -24.171  -5.740
-0.1269 -4.742 -26.014  -8.973
-0.1269 -3.933 -27.694  -7.352
-0.1349 -4.476 -27.411  -8.666
0.1301 -4.814 -23.972  -8.257
0.1301 -3.622 -26.940  -5.392
0.0441 -3.442 -24.239  -5.005
0.0441 -4.180 -23.203  -6.251
0.0441 -5.245 -24.110  -5.290
0.1301 -5.107 -25.882  -9.997
0.1301 -3.649 -28.745  -7.079
0.1301 -4.651 -28.187  -9.405
-0.0772 -10.062  12.354 -26.257
-0.1309 -8.977  12.242 -27.183
-0.1309 -10.969  11.227 -26.099
-0.0537 -10.292  13.566 -25.394
-0.1269 -8.792  11.090 -27.945
-0.1269 -10.828  10.130 -26.958
-0.1349 -9.730  10.055 -27.830
0.1301 -8.283  13.076 -27.409
0.1301 -11.726  11.207 -25.373
0.0441 -9.426  14.221 -25.157
0.0441 -11.053  14.219 -25.871
0.0441 -10.888  13.465 -24.436
0.1301 -7.923  10.907 -28.633
0.1301 -11.577   9.312 -26.947
0.1301 -9.515   9.170 -28.446
-0.0772 6.958 -10.476 -23.425
-0.1309 8.123  -9.685 -23.713
-0.1309 6.972 -11.430 -22.422
-0.0537 5.632 -10.226 -24.169
-0.1269 9.262  -9.873 -22.923
-0.1269 8.110 -11.549 -21.641
-0.1349 9.254 -10.790 -21.869
0.1301 7.980  -8.915 -24.461
0.1301 6.091 -12.055 -22.341
0.0441 5.776 -10.301 -25.196
0.0441 4.776 -10.955 -23.926
0.0441 5.244  -9.255 -23.866
0.1301 10.121  -9.284 -23.027
0.1301 8.074 -12.344 -20.896
0.1301 10.141 -10.839 -21.185
-0.0772 -2.210  19.475  18.599
-0.1309 -1.857  19.246  19.961
-0.1309 -3.455  20.107  18.339
-0.0537 -1.260  19.135  17.406
-0.1269 -2.828  19.630  20.938
-0.1269 -4.350  20.342  19.335
-0.1349 -4.099  20.066  20.603
0.1301 -0.912  18.762  20.303
0.1301 -3.654  20.307  17.248
0.0441 -1.414  18.101  17.255
0.0441 -1.414  19.668  16.472
0.0441 -0.232  19.349  17.693
0.1301 -2.704  19.247  21.940
0.1301 -5.320  20.742  19.013
0.1301 -4.842  20.392  21.283
-0.0772 -17.801  -2.223 -14.639
-0.1309 -17.144  -1.359 -13.763
-0.1309 -17.127  -3.354 -15.094
-0.0537 -19.276  -2.054 -15.000
-0.1269 -15.817  -1.554 -13.351
-0.1269 -15.847  -3.677 -14.622
-0.1349 -15.165  -2.776 -13.736
0.1301 -17.679  -0.545 -13.313
0.1301 -17.584  -4.032 -15.829
0.0441 -19.660  -1.049 -15.040
0.0441 -19.522  -2.454 -16.003
0.0441 -19.924  -2.564 -14.290
0.1301 -15.284  -0.775 -12.837
0.1301 -15.347  -4.547 -14.950
0.1301 -14.150  -2.984 -13.392
-0.0772 -7.008  27.413   5.616
-0.1309 -6.900  28.030   3.151
-0.1309 -6.961  25.714   5.861
-0.0537 -7.062  28.110   7.044
-0.1269 -6.775  26.632   2.198
-0.1269 -6.836  24.663   4.526
-0.1349 -6.719  25.076   2.852
0.1301 -6.783  28.971   2.672
0.1301 -7.064  25.407   6.866
0.0441 -7.988  27.793   7.457
0.0441 -6.245  27.878   7.745
0.0441 -7.083  29.158   6.990
0.1301 -6.591  26.764   1.156
0.1301 -6.890  23.625   4.760
0.1301 -6.658  24.285   2.121
-0.0772 -5.374   9.788 -24.502
-0.1309 -4.541  10.925 -24.627
-0.1309 -4.835   8.537 -24.745
-0.0537 -6.759  10.035 -24.005
-0.1269 -3.213  10.748 -24.974
-0.1269 -3.472   8.381 -25.233
-0.1349 -2.674   9.533 -25.379
0.1301 -4.961  11.926 -24.420
0.1301 -5.474   7.632 -24.667
0.0441 -7.030   9.613 -22.972
0.0441 -7.009  11.080 -24.000
0.0441 -7.516   9.650 -24.766
0.1301 -2.550  11.578 -24.923
0.1301 -3.108   7.438 -25.554
0.1301 -1.622   9.502 -25.722
-0.0772 -8.181  26.581   4.052
-0.1309 -8.839  28.138   4.357
-0.1309 -5.637  26.663   4.207
-0.0537 -9.350  25.538   3.807
-0.1269 -7.821  29.476   4.713
-0.1269 -5.104  28.237   4.562
-0.1349 -6.140  29.529   4.773
0.1301 -9.940  28.330   4.286
0.1301 -4.832  25.891   3.992
0.0441 -9.253  24.951   2.875
0.0441 -9.427  24.804   4.565
0.0441 -10.326  25.980   3.787
0.1301 -8.267  30.503   4.818
0.1301 -4.063  28.548   4.532
0.1301 -5.640  30.499   4.846
-0.0772 -9.799  26.804 -12.566
-0.1309 -10.209  25.964 -11.569
-0.1309 -9.737  28.224 -12.349
-0.0537 -9.268  26.212 -13.943
-0.1269 -10.546  26.516 -10.251
-0.1269 -10.056  28.785 -11.073
-0.1349 -10.419  27.880 -10.096
0.1301 -10.103  24.932 -11.638
0.1301 -9.303  28.843 -13.157
0.0441 -9.059  25.141 -13.773
0.0441 -10.030  26.400 -14.680
0.0441 -8.295  26.566 -14.339
0.1301 -10.870  25.927  -9.394
0.1301 -9.921  29.859 -10.856
0.1301 -10.588  28.245  -9.113
-0.0772 -4.587  10.915 -20.136
-0.1309 -4.802  10.816 -18.783
-0.1309 -5.566  11.645 -20.894
-0.0537 -3.322  10.419 -20.859
-0.1269 -5.950  11.420 -18.206
-0.1269 -6.759  12.199 -20.329
-0.1349 -6.982  12.106 -18.960
0.1301 -4.083  10.242 -18.238
0.1301 -5.334  11.907 -21.957
0.0441 -2.536   9.962 -20.231
0.0441 -3.469   9.561 -21.514
0.0441 -2.948  11.313 -21.478
0.1301 -6.106  11.327 -17.142
0.1301 -7.414  12.822 -20.968
0.1301 -7.818  12.477 -18.525
-0.0772 -4.815  20.368   7.571
-0.1309 -3.836  20.484   8.593
-0.1309 -5.110  19.072   7.084
-0.0537 -5.472  21.602   7.070
-0.1269 -3.150  19.325   9.057
-0.1269 -4.485  17.947   7.637
-0.1349 -3.451  18.061   8.537
0.1301 -3.555  21.492   8.958
0.1301 -5.808  19.029   6.208
0.0441 -5.523  21.535   6.005
0.0441 -6.495  21.602   7.409
0.0441 -5.024  22.500   7.336
0.1301 -2.367  19.480   9.761
0.1301 -4.769  17.006   7.223
0.1301 -2.987  17.138   8.949
-0.0772 -5.972  26.793  -6.515
-0.1309 -6.940  25.876  -6.847
-0.1309 -5.385  27.591  -7.547
-0.0537 -5.373  26.987  -5.116
-0.1269 -7.478  25.848  -8.192
-0.1269 -5.851  27.516  -8.849
-0.1349 -6.899  26.624  -9.199
0.1301 -7.472  25.310  -6.172
0.1301 -4.456  28.113  -7.317
0.0441 -4.381  26.639  -5.066
0.0441 -5.465  28.004  -4.724
0.0441 -5.958  26.493  -4.369
0.1301 -8.323  25.201  -8.456
0.1301 -5.346  28.102  -9.627
0.1301 -7.268  26.543 -10.235
-0.0772 -26.095  11.542   3.397
-0.1309 -25.724  12.321   2.298
-0.1309 -27.072  10.557   3.191
-0.0537 -25.172  11.628   4.548
-0.1269 -26.500  12.329   1.075
-0.1269 -27.860  10.503   2.019
-0.1349 -27.556  11.394   0.920
0.1301 -25.025  13.120   2.394
0.1301 -27.429   9.767   3.915
0.0441 -24.274  11.017   4.233
0.0441 -24.959  12.700   4.809
0.0441 -25.669  11.012   5.337
0.1301 -26.275  13.081   0.238
0.1301 -28.682   9.745   1.875
0.1301 -28.143  11.315   0.017
-0.0772 8.928  11.824  11.858
-0.1309 8.605  11.242  13.078
-0.1309 9.327  11.039  10.776
-0.0537 8.916  13.264  11.585
-0.1269 8.703   9.844  13.319
-0.1269 9.376   9.670  10.964
-0.1349 8.994   9.065  12.205
0.1301 8.305  11.858  13.898
0.1301 9.640  11.433   9.859
0.0441 9.236  13.545  10.596
0.0441 7.890  13.616  11.746
0.0441 9.523  13.794  12.298
0.1301 8.550   9.379  14.279
0.1301 9.786   8.989  10.206
0.1301 9.114   8.019  12.340
-0.0772 18.068   2.370  13.044
-0.1309 18.074   2.628  14.407
-0.1309 18.634   3.312  12.131
-0.0537 17.516   1.061  12.407
-0.1269 18.561   3.887  14.775
-0.1269 19.028   4.563  12.577
-0.1349 18.924   4.903  13.917
0.1301 17.612   1.940  15.113
0.1301 18.762   3.059  11.077
0.0441 17.633   0.305  13.142
0.0441 16.421   1.298  12.133
0.0441 18.125   0.809  11.561
0.1301 18.600   4.105  15.868
0.1301 19.405   5.246  11.843
0.1301 19.272   5.794  14.309
-0.0772 10.377  19.485 -15.410
-0.1309 9.338  18.636 -15.911
-0.1309 11.670  19.303 -15.730
-0.0537 9.923  20.667 -14.543
-0.1269 9.595  17.442 -16.722
-0.1269 11.945  18.231 -16.631
-0.1349 10.971  17.334 -17.125
0.1301 8.321  18.847 -15.627
0.1301 12.529  19.871 -15.464
0.0441 9.833  21.613 -15.109
0.0441 8.982  20.371 -13.945
0.0441 10.785  20.833 -13.817
0.1301 8.834  16.822 -17.175
0.1301 12.947  17.925 -16.851
0.1301 11.388  16.432 -17.592
-0.0772 -15.328   7.204 -22.836
-0.1309 -14.058   7.278 -23.379
-0.1309 -16.501   7.721 -23.484
-0.0537 -15.502   6.468 -21.503
-0.1269 -13.885   8.009 -24.575
-0.1269 -16.292   8.321 -24.729
-0.1349 -14.975   8.437 -25.278
0.1301 -13.182   6.873 -22.879
0.1301 -17.521   7.627 -23.078
0.0441 -14.879   6.811 -20.670
0.0441 -16.577   6.435 -21.226
0.0441 -15.106   5.467 -21.611
0.1301 -12.895   8.126 -24.966
0.1301 -17.146   8.779 -25.230
0.1301 -14.822   8.987 -26.198
-0.0772 -4.224  -6.077 -12.216
-0.1309 -4.552  -6.072 -10.817
-0.1309 -4.405  -4.813 -12.912
-0.0537 -3.473  -7.148 -12.981
-0.1269 -5.031  -4.947 -10.167
-0.1269 -4.937  -3.712 -12.284
-0.1349 -5.281  -3.776 -10.923
0.1301 -4.478  -7.024 -10.219
0.1301 -4.259  -4.742 -13.930
0.0441 -4.169  -7.930 -13.423
0.0441 -2.848  -6.733 -13.789
0.0441 -2.740  -7.700 -12.265
0.1301 -5.325  -5.042  -9.051
0.1301 -5.219  -2.883 -12.872
0.1301 -5.766  -2.903 -10.472
-0.0772 4.831   2.617 -27.128
-0.1309 4.514   3.801 -26.511
-0.1309 5.964   2.462 -27.897
-0.0537 3.876   1.455 -26.845
-0.1269 5.337   4.948 -26.713
-0.1269 6.873   3.497 -27.955
-0.1349 6.600   4.789 -27.392
0.1301 3.663   3.886 -25.922
0.1301 6.107   1.454 -28.370
0.0441 2.907   1.840 -26.649
0.0441 3.806   0.722 -27.633
0.0441 4.270   0.954 -25.930
0.1301 5.162   5.879 -26.179
0.1301 7.825   3.354 -28.451
0.1301 7.294   5.595 -27.492
-0.0772 2.774  13.949   8.421
-0.1309 2.938  12.944   7.494
-0.1309 1.724  13.966   9.313
-0.0537 3.748  15.032   8.292
-0.1269 1.977  11.869   7.396
-0.1269 0.825  12.897   9.228
-0.1349 0.976  11.845   8.322
0.1301 3.815  12.923   6.819
0.1301 1.626  14.702  10.075
0.0441 3.201  15.968   8.168
0.0441 4.327  15.098   9.250
0.0441 4.442  14.871   7.493
0.1301 2.049  11.065   6.676
0.1301 0.036  12.879   9.973
0.1301 0.290  10.979   8.331
-0.0772 1.740  -2.151 -19.529
-0.1309 0.806  -1.645 -20.456
-0.1309 2.733  -3.011 -19.960
-0.0537 1.827  -1.706 -18.072
-0.1269 0.877  -2.056 -21.797
-0.1269 2.785  -3.445 -21.342
-0.1349 1.769  -2.974 -22.247
0.1301 0.060  -0.896 -20.137
0.1301 3.567  -3.155 -19.333
0.0441 1.788  -2.623 -17.419
0.0441 2.829  -1.251 -17.982
0.0441 1.107  -0.953 -17.857
0.1301 0.215  -1.574 -22.454
0.1301 3.552  -4.137 -21.706
0.1301 1.790  -3.283 -23.306
-0.0772 1.848   3.221 -29.561
-0.1309 2.691   3.478 -30.630
-0.1309 1.599   4.214 -28.580
-0.0537 0.806   2.148 -29.741
-0.1269 3.539   4.624 -30.605
-0.1269 2.378   5.376 -28.543
-0.1349 3.316   5.575 -29.577
0.1301 2.919   2.669 -31.366
0.1301 0.800   4.096 -27.899
0.0441 0.492   1.830 -30.775
0.0441 1.121   1.119 -29.443
0.0441 -0.153   2.403 -29.364
0.1301 4.355   4.744 -31.278
0.1301 2.401   6.164 -27.799
0.1301 3.941   6.503 -29.492
-0.0772 7.123  16.849   2.079
-0.1309 5.786  17.314   2.165
-0.1309 7.603  16.109   3.140
-0.0537 7.920  17.184   0.783
-0.1269 5.007  17.063   3.298
-0.1269 6.791  15.705   4.238
-0.1349 5.432  16.179   4.308
0.1301 5.366  17.908   1.382
0.1301 8.619  15.700   3.108
0.0441 7.231  17.707   0.103
0.0441 8.753  17.777   0.958
0.0441 8.283  16.244   0.196
0.1301 3.905  17.427   3.372
0.1301 7.180  14.985   4.955
0.1301 4.833  15.902   5.135
-0.0772 -2.072  24.195  11.268
-0.1309 -3.046  23.265  11.686
-0.1309 -0.716  23.834  11.417
-0.0537 -2.467  25.574  10.814
-0.1269 -2.709  22.002  12.201
-0.1269 -0.345  22.515  11.817
-0.1349 -1.350  21.613  12.191
0.1301 -4.073  23.434  11.627
0.1301 -0.045  24.562  11.137
0.0441 -3.476  25.965  10.876
0.0441 -1.754  26.189  11.289
0.0441 -2.311  25.730   9.740
0.1301 -3.457  21.249  12.429
0.1301 0.704  22.210  11.820
0.1301 -1.061  20.654  12.596
-0.0772 -12.333  11.677 -13.757
-0.1309 -12.417  10.451 -12.617
-0.1309 -13.192  13.155 -13.527
-0.0537 -11.506  11.591 -14.988
-0.1269 -13.303  10.427 -11.157
-0.1269 -14.438  13.188 -11.355
-0.1349 -14.301  11.650 -10.540
0.1301 -11.829   9.562 -12.882
0.1301 -13.053  13.972 -14.301
0.0441 -10.557  11.012 -14.804
0.0441 -12.063  11.145 -15.804
0.0441 -11.209  12.629 -15.257
0.1301 -13.175   9.581 -10.512
0.1301 -14.967  14.013 -10.822
0.1301 -14.736  11.358  -9.574
-0.0772 6.245  11.039  -2.069
-0.1309 6.153  11.609  -3.407
-0.1309 7.253  11.539  -1.212
-0.0537 5.060  10.227  -1.499
-0.1269 7.168  12.555  -3.808
-0.1269 8.278  12.479  -1.621
-0.1349 8.203  12.940  -2.919
0.1301 5.416  11.377  -4.110
0.1301 7.204  11.101  -0.200
0.0441 4.868  10.530  -0.484
0.0441 4.164  10.466  -2.105
0.0441 5.222   9.148  -1.624
0.1301 7.195  13.012  -4.781
0.1301 9.069  12.808  -0.947
0.1301 8.966  13.652  -3.131
-0.0772 -7.171 -15.847  14.596
-0.1309 -7.075 -14.470  14.635
-0.1309 -5.985 -16.622  14.569
-0.0537 -8.576 -16.534  14.589
-0.1269 -5.836 -13.834  14.589
-0.1269 -4.714 -15.976  14.488
-0.1349 -4.608 -14.566  14.514
0.1301 -7.978 -13.867  14.680
0.1301 -6.010 -17.711  14.341
0.0441 -8.688 -17.238  13.774
0.0441 -8.815 -17.041  15.487
0.0441 -9.409 -15.791  14.502
0.1301 -5.802 -12.729  14.599
0.1301 -3.732 -16.447  14.238
0.1301 -3.693 -13.992  14.276
-0.0772 -23.824  16.774   2.767
-0.1309 -22.584  17.185   2.284
-0.1309 -23.827  16.170   4.006
-0.0537 -25.060  16.951   1.985
-0.1269 -21.411  17.026   3.009
-0.1269 -22.650  16.073   4.773
-0.1349 -21.406  16.574   4.306
0.1301 -22.424  17.622   1.284
0.1301 -24.758  15.844   4.478
0.0441 -25.466  17.993   2.035
0.0441 -24.950  16.702   0.941
0.0441 -25.964  16.390   2.383
0.1301 -20.475  17.315   2.609
0.1301 -22.698  15.828   5.867
0.1301 -20.502  16.589   4.878
-0.0772 -4.224 -27.930  -2.676
-0.1309 -3.852 -29.185  -3.173
-0.1309 -5.501 -27.522  -2.689
-0.0537 -3.207 -26.907  -2.186
-0.1269 -4.813 -30.081  -3.654
-0.1269 -6.444 -28.312  -3.250
-0.1349 -6.151 -29.604  -3.691
0.1301 -2.770 -29.369  -3.332
0.1301 -5.801 -26.528  -2.412
0.0441 -2.562 -26.576  -3.029
0.0441 -3.844 -26.096  -1.757
0.0441 -2.555 -27.252  -1.362
0.1301 -4.504 -31.039  -4.113
0.1301 -7.454 -27.890  -3.290
0.1301 -6.936 -30.297  -4.067
-0.0772 -17.295   6.180   9.905
-0.1309 -16.897   5.218   8.943
-0.1309 -18.294   7.154   9.503
-0.0537 -16.716   6.162  11.283
-0.1269 -17.218   5.368   7.565
-0.1269 -18.760   7.242   8.140
-0.1349 -18.210   6.311   7.191
0.1301 -16.329   4.293   9.141
0.1301 -18.678   7.928  10.170
0.0441 -17.520   5.977  12.066
0.0441 -15.913   5.404  11.288
0.0441 -16.259   7.152  11.399
0.1301 -16.799   4.648   6.801
0.1301 -19.405   8.033   7.880
0.1301 -18.482   6.440   6.148
-0.0772 -10.393  -1.679   8.109
-0.1309 -9.706  -2.414   9.118
-0.1309 -10.591  -0.247   8.267
-0.0537 -10.861  -2.289   6.846
-0.1269 -9.339  -1.780  10.334
-0.1269 -10.294   0.320   9.501
-0.1349 -9.667  -0.445  10.497
0.1301 -9.468  -3.451   8.957
0.1301 -10.989   0.343   7.437
0.0441 -10.728  -1.691   5.929
0.0441 -10.327  -3.217   6.716
0.0441 -11.918  -2.567   6.935
0.1301 -8.841  -2.320  11.187
0.1301 -10.386   1.408   9.715
0.1301 -9.343   0.089  11.362
-0.0772 -5.831   5.799   5.076
-0.1309 -7.226   5.487   5.115
-0.1309 -5.366   7.067   5.511
-0.0537 -4.874   4.769   4.571
-0.1269 -8.081   6.400   5.703
-0.1269 -6.364   7.983   5.825
-0.1349 -7.700   7.692   5.983
0.1301 -7.534   4.531   4.755
0.1301 -4.327   7.214   5.566
0.0441 -4.868   4.752   3.494
0.0441 -3.870   4.870   5.017
0.0441 -5.252   3.847   5.005
0.1301 -9.063   6.151   5.784
0.1301 -6.016   9.016   5.963
0.1301 -8.413   8.502   6.230
-0.0772 -8.558 -19.414 -12.581
-0.1309 -8.092 -18.907 -11.365
-0.1309 -8.320 -18.669 -13.708
-0.0537 -9.080 -20.842 -12.674
-0.1269 -7.409 -17.714 -11.293
-0.1269 -7.806 -17.391 -13.587
-0.1349 -7.364 -16.851 -12.392
0.1301 -8.189 -19.547 -10.483
0.1301 -8.577 -19.114 -14.710
0.0441 -8.976 -21.437 -11.761
0.0441 -10.187 -20.827 -12.943
0.0441 -8.474 -21.284 -13.331
0.1301 -7.093 -17.440 -10.264
0.1301 -7.676 -16.806 -14.463
0.1301 -7.042 -15.834 -12.265
-0.0772 -15.047  -7.510  13.159
-0.1309 -14.825  -7.435  11.781
-0.1309 -14.066  -7.491  14.148
-0.0537 -16.532  -7.486  13.629
-0.1269 -13.449  -7.581  11.448
-0.1269 -12.702  -7.597  13.836
-0.1349 -12.435  -7.719  12.443
0.1301 -15.591  -7.413  11.060
0.1301 -14.388  -7.356  15.161
0.0441 -16.526  -6.855  14.518
0.0441 -17.164  -7.181  12.801
0.0441 -16.890  -8.483  13.962
0.1301 -13.173  -7.611  10.435
0.1301 -11.856  -7.604  14.623
0.1301 -11.464  -7.952  12.092
-0.0772 16.349  19.335  12.138
-0.1309 16.996  18.265  11.484
-0.1309 16.975  20.067  13.180
-0.0537 15.022  19.895  11.579
-0.1269 18.236  17.804  11.944
-0.1269 18.228  19.625  13.530
-0.1349 18.855  18.487  13.017
0.1301 16.588  17.763  10.584
0.1301 16.453  20.910  13.621
0.0441 14.350  20.281  12.373
0.0441 15.120  20.703  10.845
0.0441 14.448  19.051  11.187
0.1301 18.788  17.067  11.370
0.1301 18.737  20.189  14.350
0.1301 19.821  18.123  13.470
-0.0772 -5.805 -10.073 -11.161
-0.1309 -5.635 -10.956 -10.015
-0.1309 -6.525  -8.927 -11.007
-0.0537 -5.336 -10.637 -12.448
-0.1269 -6.074 -10.524  -8.730
-0.1269 -6.992  -8.486  -9.724
-0.1349 -6.861  -9.374  -8.624
0.1301 -5.165 -11.972 -10.103
0.1301 -6.683  -8.348 -11.871
0.0441 -5.368 -11.801 -12.426
0.0441 -5.972 -10.325 -13.300
0.0441 -4.286 -10.323 -12.690
0.1301 -5.920 -11.089  -7.830
0.1301 -7.675  -7.720  -9.704
0.1301 -7.320  -9.196  -7.663
-0.0772 -20.356  15.654  16.883
-0.1309 -19.651  16.802  17.274
-0.1309 -20.394  14.589  17.734
-0.0537 -21.215  15.788  15.572
-0.1269 -18.876  16.806  18.436
-0.1269 -19.558  14.565  18.823
-0.1349 -18.764  15.636  19.175
0.1301 -19.703  17.642  16.577
0.1301 -21.046  13.759  17.530
0.0441 -22.266  15.919  15.879
0.0441 -20.905  16.683  15.043
0.0441 -21.065  14.900  14.946
0.1301 -18.430  17.738  18.832
0.1301 -19.579  13.711  19.486
0.1301 -18.110  15.576  20.075
-0.0772 -25.832   7.628  -2.878
-0.1309 -25.140   8.270  -3.889
-0.1309 -26.525   6.481  -3.190
-0.0537 -25.998   8.165  -1.455
-0.1269 -25.077   7.766  -5.183
-0.1269 -26.632   6.095  -4.468
-0.1349 -25.845   6.634  -5.465
0.1301 -24.578   9.180  -3.628
0.1301 -27.275   6.161  -2.495
0.0441 -25.222   8.891  -1.264
0.0441 -26.958   8.611  -1.404
0.0441 -25.876   7.379  -0.693
0.1301 -24.450   8.195  -5.987
0.1301 -27.336   5.217  -4.665
0.1301 -25.879   6.232  -6.510
-0.0772 -0.779  23.527  15.904
-0.1309 0.516  23.232  15.441
-0.1309 -1.260  23.060  17.143
-0.0537 -1.614  24.413  15.053
-0.1269 1.414  22.583  16.328
-0.1269 -0.395  22.370  17.978
-0.1349 0.915  22.109  17.550
0.1301 0.978  23.671  14.571
0.1301 -2.222  23.387  17.477
0.0441 -1.026  24.843  14.210
0.0441 -2.037  25.267  15.621
0.0441 -2.528  23.911  14.654
0.1301 2.526  22.451  16.183
0.1301 -0.769  21.919  18.934
0.1301 1.531  21.498  18.091
-0.0772 -24.993  -8.838  12.038
-0.1309 -24.396  -9.541  13.138
-0.1309 -24.601  -9.247  10.714
-0.0537 -26.110  -7.917  12.210
-0.1269 -23.295 -10.413  12.975
-0.1269 -23.609 -10.208  10.555
-0.1349 -22.822 -10.666  11.695
0.1301 -24.861  -9.406  14.165
0.1301 -25.070  -8.837   9.786
0.0441 -25.909  -6.985  11.699
0.0441 -26.941  -8.520  11.645
0.0441 -26.461  -7.735  13.230
0.1301 -22.875 -10.977  13.860
0.1301 -23.473 -10.594   9.571
0.1301 -22.024 -11.347  11.550
-0.0772 -5.686  -8.617   1.459
-0.1309 -6.660  -7.590   1.459
-0.1309 -5.438  -9.270   0.284
-0.0537 -4.979  -8.981   2.710
-0.1269 -7.354  -7.308   0.273
-0.1269 -6.066  -8.952  -0.907
-0.1349 -7.125  -8.100  -0.883
0.1301 -6.972  -7.104   2.385
0.1301 -4.762 -10.097   0.299
0.0441 -3.932  -9.317   2.575
0.0441 -5.012  -8.123   3.396
0.0441 -5.407  -9.823   3.201
0.1301 -8.053  -6.502   0.308
0.1301 -5.916  -9.508  -1.797
0.1301 -7.600  -7.857  -1.841
-0.0772 0.974  10.910  13.012
-0.1309 2.371  10.949  13.047
-0.1309 0.317  11.188  14.164
-0.0537 0.327  10.286  11.771
-0.1269 3.077  11.395  14.162
-0.1269 0.999  11.612  15.335
-0.1349 2.420  11.758  15.333
0.1301 2.853  10.790  12.083
0.1301 -0.770  11.040  14.261
0.0441 0.113  10.958  10.948
0.0441 1.151   9.597  11.401
0.0441 -0.481   9.576  11.900
0.1301 4.167  11.529  14.047
0.1301 0.508  11.830  16.230
0.1301 2.949  12.086  16.246
-0.0772 -0.334   3.948   7.198
-0.1309 -1.580   4.536   6.987
-0.1309 -0.310   2.578   7.718
-0.0537 0.862   4.559   6.561
-0.1269 -2.744   3.810   7.417
-0.1269 -1.434   1.912   8.203
-0.1349 -2.678   2.567   8.032
0.1301 -1.654   5.520   6.439
0.1301 0.681   2.124   7.692
0.0441 1.571   5.109   7.268
0.0441 1.551   3.741   6.143
0.0441 0.580   5.079   5.636
0.1301 -3.747   4.180   7.233
0.1301 -1.403   0.897   8.510
0.1301 -3.611   2.057   8.283
-0.0772 -0.344  -9.010   4.417
-0.1309 0.200  -9.653   3.305
-0.1309 -0.588  -9.706   5.614
-0.0537 -0.795  -7.532   4.427
-0.1269 0.532 -11.068   3.426
-0.1269 -0.328 -11.140   5.657
-0.1349 0.312 -11.798   4.560
0.1301 0.366  -9.101   2.352
0.1301 -1.051  -9.256   6.457
0.0441 -0.431  -6.879   3.591
0.0441 -1.890  -7.681   4.370
0.0441 -0.578  -7.054   5.425
0.1301 1.023 -11.434   2.571
0.1301 -0.394 -11.821   6.514
0.1301 0.724 -12.797   4.676
-0.0772 -6.436  -0.407  21.014
-0.1309 -6.785  -0.329  22.385
-0.1309 -5.196   0.236  20.629
-0.0537 -7.335  -0.948  19.970
-0.1269 -5.883   0.160  23.343
-0.1269 -4.331   0.823  21.596
-0.1349 -4.673   0.734  22.916
0.1301 -7.794  -0.470  22.719
0.1301 -4.930   0.399  19.628
0.0441 -7.587  -1.958  20.264
0.0441 -8.251  -0.375  19.964
0.0441 -6.876  -0.896  18.982
0.1301 -6.200   0.118  24.405
0.1301 -3.417   1.252  21.169
0.1301 -4.005   1.218  23.632
-0.0772 -17.496  -2.070  -1.144
-0.1309 -18.817  -1.691  -1.482
-0.1309 -16.942  -1.561   0.002
-0.0537 -16.665  -3.005  -2.001
-0.1269 -19.478  -0.750  -0.738
-0.1269 -17.590  -0.546   0.771
-0.1349 -18.891  -0.097   0.354
0.1301 -19.305  -2.184  -2.333
0.1301 -15.919  -1.933   0.291
0.0441 -16.976  -4.056  -1.787
0.0441 -16.763  -2.841  -3.024
0.0441 -15.599  -2.948  -1.819
0.1301 -20.455  -0.386  -1.100
0.1301 -17.099  -0.079   1.614
0.1301 -19.365   0.684   1.000
-0.0772 -2.707 -16.655   9.470
-0.1309 -4.060 -16.797   9.615
-0.1309 -2.102 -15.773  10.345
-0.0537 -1.926 -17.448   8.429
-0.1269 -4.892 -16.016  10.471
-0.1269 -2.842 -14.863  11.133
-0.1349 -4.223 -14.957  11.181
0.1301 -4.453 -17.634   9.060
0.1301 -0.989 -15.678  10.361
0.0441 -0.928 -17.021   8.280
0.0441 -1.788 -18.562   8.637
0.0441 -2.379 -17.389   7.435
0.1301 -5.877 -16.279  10.572
0.1301 -2.319 -14.164  11.777
0.1301 -4.812 -14.316  11.778
-0.0772 10.925  26.619   1.983
-0.1309 11.521  26.189   0.761
-0.1309 10.271  27.910   2.014
-0.0537 10.949  25.642   3.161
-0.1269 11.442  27.056  -0.337
-0.1269 10.280  28.765   0.852
-0.1349 10.728  28.282  -0.369
0.1301 12.005  25.184   0.600
0.1301 9.920  28.358   2.939
0.0441 10.674  26.209   4.095
0.0441 10.272  24.887   3.058
0.0441 11.931  25.278   3.234
0.1301 11.908  26.758  -1.282
0.1301 9.809  29.671   0.947
0.1301 10.874  28.877  -1.238
-0.0772 -15.772  -1.878   8.723
-0.1309 -14.386  -1.601   8.897
-0.1309 -16.370  -3.036   9.265
-0.0537 -16.753  -0.828   8.215
-0.1269 -13.569  -2.558   9.535
-0.1269 -15.560  -3.938  10.051
-0.1349 -14.197  -3.657  10.140
0.1301 -13.972  -0.609   8.560
0.1301 -17.433  -3.206   9.257
0.0441 -17.801  -1.138   8.291
0.0441 -16.640   0.114   8.705
0.0441 -16.466  -0.610   7.239
0.1301 -12.544  -2.390   9.872
0.1301 -15.987  -4.817  10.426
0.1301 -13.644  -4.469  10.667
-0.0772 18.849  -0.154 -11.439
-0.1309 17.572  -0.482 -11.991
-0.1309 18.996   0.984 -10.616
-0.0537 20.086  -1.043 -11.821
-0.1269 16.396   0.251 -11.726
-0.1269 17.834   1.669 -10.353
-0.1349 16.546   1.334 -10.832
0.1301 17.482  -1.246 -12.744
0.1301 20.016   1.198 -10.245
0.0441 19.855  -2.009 -12.143
0.0441 20.644  -0.545 -12.618
0.0441 20.746  -1.008 -10.941
0.1301 15.462  -0.056 -12.121
0.1301 17.915   2.482  -9.575
0.1301 15.658   1.873 -10.678
-0.0772 -8.622 -15.963   7.912
-0.1309 -9.258 -15.823   9.129
-0.1309 -8.531 -17.228   7.342
-0.0537 -8.170 -14.787   7.144
-0.1269 -9.693 -16.979   9.850
-0.1269 -9.017 -18.371   7.992
-0.1349 -9.656 -18.240   9.244
0.1301 -9.326 -14.896   9.612
0.1301 -8.140 -17.374   6.336
0.0441 -8.662 -13.851   7.337
0.0441 -7.095 -14.603   7.242
0.0441 -8.401 -14.907   6.141
0.1301 -10.141 -16.881  10.841
0.1301 -8.973 -19.355   7.519
0.1301 -10.077 -18.999   9.842
-0.0772 0.065  -1.254  20.429
-0.1309 -1.283  -1.159  20.093
-0.1309 1.041  -0.866  19.478
-0.0537 0.396  -1.631  21.885
-0.1269 -1.673  -0.589  18.879
-0.1269 0.709  -0.458  18.180
-0.1349 -0.655  -0.319  17.909
0.1301 -2.111  -1.233  20.784
0.1301 2.071  -0.955  19.740
0.0441 0.446  -2.723  21.939
0.0441 1.368  -1.290  22.187
0.0441 -0.332  -1.322  22.654
0.1301 -2.654  -0.378  18.558
0.1301 1.506  -0.367  17.498
0.1301 -0.988  -0.057  16.929
-0.0772 2.250 -18.184 -11.694
-0.1309 2.580 -16.796 -11.862
-0.1309 1.484 -18.580 -10.554
-0.0537 2.528 -19.156 -12.839
-0.1269 2.383 -15.931 -10.789
-0.1269 1.231 -17.644  -9.494
-0.1349 1.702 -16.330  -9.636
0.1301 3.081 -16.461 -12.827
0.1301 1.139 -19.571 -10.495
0.0441 2.425 -20.158 -12.440
0.0441 1.785 -19.053 -13.620
0.0441 3.556 -19.020 -13.250
0.1301 2.780 -14.910 -10.909
0.1301 0.680 -17.887  -8.620
0.1301 1.741 -15.657  -8.764
-0.0772 5.135 -18.876   3.281
-0.1309 4.941 -17.666   2.584
-0.1309 6.433 -19.244   3.714
-0.0537 3.978 -19.935   3.409
-0.1269 6.050 -16.823   2.459
-0.1269 7.492 -18.318   3.640
-0.1349 7.316 -17.076   3.008
0.1301 3.897 -17.411   2.237
0.1301 6.619 -20.181   4.177
0.0441 4.097 -20.710   2.621
0.0441 4.038 -20.379   4.430
0.0441 2.901 -19.516   3.313
0.1301 5.838 -15.913   1.858
0.1301 8.483 -18.579   4.024
0.1301 8.085 -16.380   2.841
-0.0772 -14.304   1.368   4.031
-0.1309 -15.290   1.148   4.980
-0.1309 -14.655   2.236   2.904
-0.0537 -13.049   0.514   4.024
-0.1269 -16.572   1.795   4.888
-0.1269 -15.942   2.841   2.804
-0.1349 -16.913   2.559   3.744
0.1301 -15.016   0.572   5.817
0.1301 -13.933   2.318   2.070
0.0441 -12.458   0.652   3.131
0.0441 -12.385   0.816   4.854
0.0441 -13.329  -0.492   4.208
0.1301 -17.404   1.665   5.610
0.1301 -16.175   3.350   1.965
0.1301 -17.897   3.062   3.657
-0.0772 -8.082  -6.876  10.594
-0.1309 -7.768  -6.236  11.838
-0.1309 -9.378  -6.713  10.097
-0.0537 -7.008  -7.579   9.801
-0.1269 -8.691  -5.442  12.483
-0.1269 -10.325  -5.846  10.790
-0.1349 -10.000  -5.268  11.998
0.1301 -6.757  -6.335  12.332
0.1301 -9.686  -7.156   9.206
0.0441 -6.733  -7.120   8.862
0.0441 -6.034  -7.608  10.324
0.0441 -7.351  -8.615   9.565
0.1301 -8.445  -5.124  13.478
0.1301 -11.364  -5.668  10.408
0.1301 -10.631  -4.581  12.535
-0.0772 9.091 -21.582  -2.827
-0.1309 9.235 -20.806  -1.669
-0.1309 8.120 -21.267  -3.758
-0.0537 9.946 -22.822  -2.953
-0.1269 8.388 -19.682  -1.447
-0.1269 7.336 -20.097  -3.607
-0.1349 7.516 -19.280  -2.477
0.1301 10.048 -20.950  -1.061
0.1301 7.978 -21.941  -4.631
0.0441 10.896 -22.620  -2.289
0.0441 9.267 -23.770  -2.791
0.0441 10.277 -22.901  -4.000
0.1301 8.509 -18.997  -0.655
0.1301 6.506 -19.835  -4.231
0.1301 6.852 -18.452  -2.298
-0.0772 -15.001  12.704  15.380
-0.1309 -16.229  12.884  16.074
-0.1309 -14.035  11.926  15.971
-0.0537 -14.867  13.423  14.043
-0.1269 -16.381  12.385  17.423
-0.1269 -14.198  11.489  17.308
-0.1349 -15.316  11.830  18.030
0.1301 -17.004  13.477  15.605
0.1301 -13.085  11.755  15.416
0.0441 -14.627  12.819  13.218
0.0441 -15.825  13.870  13.862
0.0441 -14.130  14.248  14.034
0.1301 -17.335  12.567  17.975
0.1301 -13.399  10.957  17.807
0.1301 -15.345  11.529  19.041
-0.0772 1.422 -15.440   5.376
-0.1309 1.629 -14.916   6.605
-0.1309 0.081 -15.591   4.982
-0.0537 2.559 -15.879   4.460
-0.1269 0.598 -14.441   7.399
-0.1269 -0.994 -15.220   5.793
-0.1349 -0.752 -14.580   7.022
0.1301 2.668 -14.790   7.010
0.1301 -0.247 -16.035   4.030
0.0441 3.474 -15.742   5.068
0.0441 2.441 -16.841   4.028
0.0441 2.649 -15.123   3.652
0.1301 0.817 -13.890   8.317
0.1301 -1.981 -15.511   5.474
0.1301 -1.602 -14.282   7.665
-0.0772 -21.344 -13.461  -3.278
-0.1309 -20.530 -12.465  -3.813
-0.1309 -22.728 -13.464  -3.635
-0.0537 -20.716 -14.465  -2.344
-0.1269 -21.082 -11.448  -4.636
-0.1269 -23.241 -12.443  -4.465
-0.1349 -22.443 -11.424  -4.928
0.1301 -19.432 -12.410  -3.566
0.1301 -23.293 -14.350  -3.444
0.0441 -20.813 -15.472  -2.697
0.0441 -19.633 -14.280  -2.153
0.0441 -21.094 -14.254  -1.378
0.1301 -20.388 -10.620  -4.888
0.1301 -24.248 -12.532  -4.867
0.1301 -22.884 -10.636  -5.535
-0.0772 6.128   0.675  21.615
-0.1309 5.977   1.241  22.878
-0.1309 5.358  -0.460  21.240
-0.0537 7.067   1.247  20.585
-0.1269 5.091   0.692  23.825
-0.1269 4.460  -0.986  22.158
-0.1349 4.251  -0.363  23.419
0.1301 6.584   2.118  23.130
0.1301 5.521  -0.961  20.275
0.0441 7.592   0.353  20.199
0.0441 6.509   1.680  19.742
0.0441 7.768   2.096  20.951
0.1301 4.959   1.222  24.803
0.1301 3.874  -1.944  21.954
0.1301 3.534  -0.773  24.048
-0.0772 7.893 -23.521  13.186
-0.1309 9.139 -23.193  13.790
-0.1309 6.798 -22.638  13.460
-0.0537 7.813 -24.654  12.205
-0.1269 9.327 -22.152  14.689
-0.1269 6.981 -21.545  14.368
-0.1349 8.232 -21.332  15.013
0.1301 10.013 -23.829  13.623
0.1301 5.796 -22.868  13.008
0.0441 8.830 -24.984  12.044
0.0441 7.203 -25.486  12.596
0.0441 7.449 -24.322  11.255
0.1301 10.268 -21.931  15.277
0.1301 6.187 -20.785  14.459
0.1301 8.373 -20.433  15.646
-0.0772 -10.356  -3.442   1.373
-0.1309 -8.943  -3.526   1.636
-0.1309 -10.864  -3.543   0.061
-0.0537 -11.283  -3.104   2.534
-0.1269 -8.099  -3.937   0.598
-0.1269 -9.951  -3.895  -0.976
-0.1349 -8.636  -4.153  -0.649
0.1301 -8.544  -3.242   2.607
0.1301 -11.970  -3.414  -0.019
0.0441 -11.663  -3.992   3.032
0.0441 -10.738  -2.561   3.279
0.0441 -12.090  -2.433   2.114
0.1301 -7.041  -4.061   0.693
0.1301 -10.432  -3.898  -1.938
0.1301 -7.932  -4.324  -1.392
-0.0772 -27.335  -6.394   6.018
-0.1309 -27.581  -4.970   5.927
-0.1309 -26.017  -6.792   6.389
-0.0537 -28.321  -7.447   5.603
-0.1269 -26.639  -4.041   6.299
-0.1269 -25.057  -5.848   6.640
-0.1349 -25.399  -4.523   6.687
0.1301 -28.547  -4.536   5.702
0.1301 -25.758  -7.868   6.481
0.0441 -28.346  -8.351   6.316
0.0441 -29.317  -7.053   5.795
0.0441 -28.282  -7.877   4.553
0.1301 -26.843  -2.976   6.290
0.1301 -24.036  -6.175   6.739
0.1301 -24.713  -3.757   6.983
-0.0772 -10.861   3.848  -9.113
-0.1309 -10.343   3.862  -7.750
-0.1309 -12.265   4.022  -9.391
-0.0537 -10.081   3.296 -10.326
-0.1269 -11.222   4.276  -6.679
-0.1269 -13.110   4.359  -8.324
-0.1349 -12.611   4.530  -6.993
0.1301 -9.291   3.582  -7.549
0.1301 -12.673   3.972 -10.368
0.0441 -9.024   3.100 -10.082
0.0441 -10.515   2.418 -10.774
0.0441 -10.088   4.069 -11.043
0.1301 -10.848   4.418  -5.659
0.1301 -14.167   4.355  -8.493
0.1301 -13.293   4.746  -6.239
-0.0772 -7.267  -0.048   5.776
-0.1309 -7.237  -0.914   4.619
-0.1309 -8.330   0.872   5.967
-0.0537 -6.348  -0.300   6.916
-0.1269 -8.059  -0.548   3.515
-0.1269 -9.226   1.046   4.900
-0.1349 -8.934   0.508   3.627
0.1301 -6.630  -1.831   4.523
0.1301 -8.512   1.303   6.939
0.0441 -6.643  -1.152   7.475
0.0441 -5.320  -0.250   6.611
0.0441 -6.415   0.470   7.623
0.1301 -7.872  -1.135   2.630
0.1301 -10.072   1.731   5.017
0.1301 -9.563   0.753   2.835
-0.0772 -14.142  -5.747  20.401
-0.1309 -13.777  -6.513  19.283
-0.1309 -15.534  -5.507  20.598
-0.0537 -13.152  -5.332  21.486
-0.1269 -14.690  -6.990  18.376
-0.1269 -16.387  -5.828  19.589
-0.1349 -16.007  -6.555  18.450
0.1301 -12.760  -6.927  19.270
0.1301 -15.867  -5.088  21.509
0.0441 -13.259  -5.853  22.448
0.0441 -12.130  -5.533  21.190
0.0441 -13.237  -4.208  21.601
0.1301 -14.366  -7.704  17.587
0.1301 -17.471  -5.602  19.748
0.1301 -16.712  -6.892  17.660
-0.0772 -13.894   1.583  -0.614
-0.1309 -13.016   2.695  -0.546
-0.1309 -13.469   0.331  -0.162
-0.0537 -15.356   1.735  -1.113
-0.1269 -11.677   2.469  -0.252
-0.1269 -12.083   0.083   0.051
-0.1349 -11.193   1.123  -0.011
0.1301 -13.388   3.739  -0.766
0.1301 -14.191  -0.549  -0.173
0.0441 -15.837   2.312  -0.325
0.0441 -15.372   2.309  -1.978
