1581

0.0372 3.304   6.041  16.021
0.0372 2.581   6.205  14.429
-0.6497 1.176   5.755  15.928
0.4215 1.002   6.009  16.862
0.0372 -9.019  11.326  25.943
0.1166 -9.162  10.566  26.736
0.0372 -10.176  10.184  26.773
0.0372 -8.794  11.017  27.660
-0.6497 -8.367   9.420  26.430
0.4215 -7.466   9.718  26.325
0.0372 5.253  23.036  20.453
0.1166 6.174  22.421  20.529
0.0372 6.248  22.194  21.585
0.0372 7.038  23.038  20.179
-0.6497 6.202  21.308  19.707
0.4215 5.866  20.601  20.238
0.0372 -17.554  12.600  21.855
0.1166 -17.389  11.607  21.434
0.0372 -16.380  11.432  21.094
0.0372 -17.922  11.706  20.457
-0.6497 -17.951  10.599  22.238
0.4215 -17.538  10.778  23.107
0.0372 -5.653  10.511  29.739
0.1166 -4.780   9.897  29.413
0.0372 -4.416   9.627  30.413
0.0372 -4.003  10.404  28.781
-0.6497 -5.306   8.862  28.751
0.4215 -5.425   9.259  27.837
0.0372 -14.892  12.578  23.147
0.1166 -15.449  12.636  24.104
0.0372 -16.194  13.421  24.159
0.0372 -14.629  12.873  24.783
-0.6497 -15.891  11.287  24.431
0.4215 -15.129  10.772  24.658
0.0372 -12.808   3.174  18.395
0.1166 -12.181   3.834  19.053
0.0372 -11.920   3.192  19.892
0.0372 -12.829   4.704  19.337
-0.6497 -11.029   4.209  18.296
0.4215 -11.200   5.018  17.872
0.0372 1.752   8.418  23.033
0.1166 2.072   7.541  23.531
0.0372 3.163   7.415  23.695
0.0372 1.818   6.740  22.871
-0.6497 1.427   7.471  24.804
0.4215 1.759   6.758  25.416
0.0372 1.584   0.902  25.772
0.1166 1.607   1.852  26.171
0.0372 2.588   2.251  26.361
0.0372 1.236   1.824  27.274
-0.6497 0.815   2.874  25.467
0.4215 1.316   3.154  24.679
0.0372 -6.922  -3.330  24.007
0.1166 -7.043  -3.648  25.063
0.0372 -7.001  -4.796  25.091
0.0372 -7.998  -3.383  25.530
-0.6497 -6.019  -3.229  26.010
0.4215 -5.895  -2.258  25.974
0.0372 -6.018   4.383  28.808
0.1166 -5.631   5.361  29.034
0.0372 -4.718   5.548  28.407
0.0372 -5.366   5.470  30.086
-0.6497 -6.640   6.319  28.737
0.4215 -6.308   7.212  29.006
0.0372 -8.141  -0.910  26.432
0.1166 -7.492  -0.015  26.197
0.0372 -7.440   0.633  27.066
0.0372 -7.861   0.552  25.293
-0.6497 -6.211  -0.454  25.937
0.4215 -5.662   0.219  25.519
0.0372 -9.974   4.546  24.876
0.1166 -9.853   5.192  23.983
0.0372 -10.453   6.018  24.280
0.0372 -10.294   4.859  23.027
-0.6497 -8.538   5.584  23.674
0.4215 -8.085   5.780  24.431
0.0372 -19.189   7.099  22.324
0.1166 -20.044   7.681  22.132
0.0372 -20.336   8.212  23.114
0.0372 -20.894   7.133  21.757
-0.6497 -19.904   8.755  21.173
0.4215 -19.067   9.194  21.435
0.0372 -5.510  14.431  26.711
0.1166 -5.628  13.997  27.729
0.0372 -5.964  14.876  28.315
0.0372 -4.732  13.566  28.184
-0.6497 -6.613  13.060  27.537
0.4215 -7.034  13.281  26.691
0.0372 -23.489   1.996  16.410
0.1166 -24.265   2.292  15.704
0.0372 -25.034   2.862  16.115
0.0372 -24.747   1.342  15.293
-0.6497 -23.745   3.053  14.669
0.4215 -22.917   3.475  14.993
0.0372 -2.581  13.331  19.652
0.1166 -1.781  12.941  19.047
0.0372 -1.019  13.649  18.882
0.0372 -2.081  12.639  18.008
-0.6497 -1.257  11.749  19.605
0.4215 -0.576  11.484  18.979
0.0372 2.151   3.007  19.425
0.1166 1.596   3.859  19.685
0.0372 1.236   4.225  18.774
0.0372 2.269   4.553  20.204
-0.6497 0.571   3.605  20.596
0.4215 0.019   4.400  20.603
0.0372 0.084   1.841  22.832
0.1166 0.499   0.944  22.402
0.0372 1.359   0.762  23.054
0.0372 0.859   1.152  21.410
-0.6497 -0.442  -0.130  22.484
0.4215 -0.021  -1.010  22.292
0.0372 11.445  16.377  20.222
0.1166 11.308  16.990  21.096
0.0372 12.132  17.664  21.431
0.0372 10.959  16.377  21.930
-0.6497 10.210  17.821  20.832
0.4215 10.604  18.521  20.240
0.0372 -16.784   6.687  20.512
0.1166 -16.166   7.178  19.820
0.0372 -16.042   8.178  20.150
0.0372 -16.514   7.129  18.782
-0.6497 -14.820   6.637  19.838
0.4215 -14.193   7.145  19.315
0.0372 -3.417  -9.255  29.491
0.1166 -2.473  -9.846  29.469
0.0372 -2.748 -10.932  29.450
0.0372 -1.883  -9.789  30.398
-0.6497 -1.644  -9.604  28.345
0.4215 -2.014 -10.129  27.642
0.0372 -3.030   5.211  23.784
0.1166 -2.236   4.908  24.469
0.0372 -1.305   5.323  24.051
0.0372 -2.071   3.845  24.488
-0.6497 -2.357   5.432  25.703
0.4215 -2.995   6.132  25.558
0.0372 -0.958   9.727  22.395
0.1166 -2.094   9.927  22.375
0.0372 -2.579   9.095  22.177
0.0372 -2.368  10.723  21.714
-0.6497 -2.341  10.364  23.691
0.4215 -2.163   9.623  24.261
0.0372 -10.952   6.427  28.939
0.1166 -10.126   7.112  28.619
0.0372 -9.152   6.672  28.904
0.0372 -10.303   7.982  29.171
-0.6497 -10.134   7.395  27.261
0.4215 -9.470   8.058  26.967
0.0372 -4.961  14.622  23.579
0.1166 -5.198  14.828  22.568
0.0372 -4.431  14.372  21.929
0.0372 -5.290  15.853  22.430
-0.6497 -6.466  14.229  22.279
0.4215 -6.595  14.365  21.354
0.0372 -4.551  11.281  24.672
0.1166 -4.415  11.206  25.773
0.0372 -4.083  12.229  26.073
0.0372 -3.623  10.597  26.058
-0.6497 -5.621  10.862  26.516
0.4215 -5.981  11.659  26.934
0.0372 -1.771  -1.687  29.583
0.1166 -0.816  -1.488  29.970
0.0372 -0.558  -2.353  30.633
0.0372 -0.764  -0.603  30.548
-0.6497 0.102  -1.363  28.961
0.4215 -0.489  -1.569  28.257
0.0372 -3.533  -1.698  23.234
0.1166 -2.968  -2.656  23.290
0.0372 -2.910  -3.044  24.304
0.0372 -1.937  -2.597  22.900
-0.6497 -3.670  -3.757  22.740
0.4215 -3.412  -4.573  23.185
0.0372 2.365   8.155  18.989
0.1166 1.850   7.430  19.491
0.0372 1.340   7.829  20.329
0.0372 2.642   6.792  19.924
-0.6497 0.933   6.703  18.731
0.4215 0.268   6.350  19.307
0.0372 -8.164   2.322  22.745
0.1166 -7.181   2.638  22.360
0.0372 -6.621   2.787  23.269
0.0372 -7.238   3.624  21.770
-0.6497 -6.565   1.582  21.626
0.4215 -5.761   1.888  21.184
0.0372 0.673  17.596  21.567
0.1166 0.460  17.911  20.539
0.0372 1.322  18.346  20.088
0.0372 -0.251  18.678  20.489
-0.6497 0.012  16.925  19.588
0.4215 -0.980  16.946  19.520
0.0372 -8.960  14.392  25.823
0.1166 -8.612  14.237  24.804
0.0372 -8.455  15.165  24.298
0.0372 -9.386  13.610  24.264
-0.6497 -7.395  13.502  24.808
0.4215 -7.201  13.430  23.924
0.0372 -2.054  13.344  21.964
0.1166 -1.282  13.553  22.728
0.0372 -1.093  14.673  22.782
0.0372 -0.389  13.078  22.479
-0.6497 -1.669  13.141  24.110
0.4215 -2.185  12.317  23.909
0.0372 -7.038   2.841  26.646
0.1166 -7.889   3.540  26.765
0.0372 -8.265   3.717  27.796
0.0372 -8.749   3.095  26.201
-0.6497 -7.460   4.735  26.154
0.4215 -7.358   5.338  26.904
0.0372 -18.625  11.490  10.789
0.1166 -17.772  12.172  10.573
0.0372 -18.090  13.187  10.778
0.0372 -17.473  11.972   9.502
-0.6497 -16.647  11.895  11.446
0.4215 -16.010  11.335  10.985
0.0372 -1.387  14.695  28.036
0.1166 -0.726  14.410  27.235
0.0372 -0.870  13.397  27.044
0.0372 0.275  14.531  27.604
-0.6497 -0.908  15.131  26.077
0.4215 -1.196  14.499  25.385
0.0372 0.368  12.002   8.080
0.1166 0.882  11.538   7.232
0.0372 1.981  11.817   7.172
0.0372 0.389  11.948   6.407
-0.6497 0.565  10.169   7.240
0.4215 -0.377  10.055   7.438
0.0372 0.220   4.736   3.950
0.1166 1.279   4.592   4.114
0.0372 1.454   3.520   3.962
0.0372 1.427   4.709   5.243
-0.6497 2.194   5.352   3.369
0.4215 3.098   5.286   3.836
0.0372 -7.072  -1.458  22.328
0.1166 -7.939  -1.484  21.630
0.0372 -8.835  -1.163  22.213
0.0372 -8.187  -2.504  21.312
-0.6497 -7.796  -0.539  20.634
0.4215 -7.430   0.286  21.058
0.0372 -0.355   4.111  13.023
0.1166 -0.951   4.392  13.834
0.0372 -0.526   3.920  14.732
0.0372 -1.979   4.099  13.718
-0.6497 -0.822   5.759  14.120
0.4215 -0.102   5.905  14.762
0.0372 -6.283  13.419   6.686
0.1166 -6.262  12.409   6.446
0.0372 -6.788  11.851   7.261
0.0372 -5.203  12.209   6.342
-0.6497 -7.010  12.366   5.264
0.4215 -7.753  12.966   5.339
0.0372 -16.123  -0.043  18.053
0.1166 -15.625   0.937  17.914
0.0372 -14.657   0.883  18.215
0.0372 -16.039   1.734  18.562
-0.6497 -15.626   1.392  16.548
0.4215 -15.210   0.602  16.093
0.0372 -16.593  -4.318   4.165
0.1166 -16.975  -3.700   4.930
0.0372 -16.564  -4.087   5.919
0.0372 -18.069  -3.608   4.900
-0.6497 -16.442  -2.472   4.773
0.4215 -15.622  -2.291   5.262
0.0372 -5.189  20.935  20.339
0.1166 -4.552  21.654  19.909
0.0372 -5.098  22.510  19.465
0.0372 -3.997  21.139  19.072
-0.6497 -3.587  22.234  20.804
0.4215 -3.093  22.944  20.304
0.0372 -12.084   4.191   8.552
0.1166 -12.748   4.405   9.321
0.0372 -13.178   3.501   9.608
0.0372 -13.503   5.112   8.987
-0.6497 -12.097   4.869  10.489
0.4215 -11.533   4.154  10.868
0.0372 -7.436   0.351   6.221
0.1166 -7.961  -0.470   6.669
0.0372 -7.363  -0.832   7.483
0.0372 -8.068  -1.151   5.846
-0.6497 -9.260  -0.159   7.165
0.4215 -9.557  -0.957   7.546
0.0372 -11.148  16.152   9.993
0.1166 -11.387  15.479  10.868
0.0372 -10.530  15.263  11.532
0.0372 -11.808  14.599  10.431
-0.6497 -12.384  16.002  11.725
0.4215 -12.342  16.976  11.831
0.0372 -14.795  10.416  14.130
0.1166 -14.317   9.474  14.092
0.0372 -13.732   9.421  13.246
0.0372 -15.055   8.633  14.171
-0.6497 -13.582   9.406  15.229
0.4215 -14.159   9.242  15.972
0.0372 0.150   5.109   9.825
0.1166 1.202   5.367   9.619
0.0372 1.337   6.408   9.861
0.0372 1.452   5.209   8.570
-0.6497 2.113   4.669  10.491
0.4215 2.999   4.974  10.245
0.0372 -23.321   9.560  21.630
0.1166 -23.364   8.840  20.849
0.0372 -24.217   8.816  20.225
0.0372 -23.311   7.905  21.405
-0.6497 -22.278   8.922  19.947
0.4215 -21.462   8.920  20.455
0.0372 -10.490  15.804   2.302
0.1166 -9.496  15.431   2.648
0.0372 -9.620  14.443   3.129
0.0372 -8.958  16.049   3.353
-0.6497 -8.671  15.357   1.528
0.4215 -8.515  16.215   1.151
0.0372 -0.705   9.196  15.266
0.1166 -0.190   9.509  14.289
0.0372 -0.638   9.093  13.356
0.0372 0.860   9.308  14.366
-0.6497 -0.217  10.925  14.208
0.4215 0.341  11.291  13.566
0.0372 -21.689   8.799  16.326
0.1166 -21.096   9.614  16.741
0.0372 -20.787  10.188  15.953
0.0372 -20.243   9.188  17.331
-0.6497 -21.997  10.361  17.579
0.4215 -22.072   9.745  18.366
0.0372 -19.178   1.632  23.399
0.1166 -18.308   1.712  24.069
0.0372 -17.778   0.754  23.974
0.0372 -18.805   1.865  25.010
-0.6497 -17.438   2.706  23.666
0.4215 -16.745   2.787  24.335
0.0372 -0.046  -0.988  12.392
0.1166 0.827  -1.532  12.680
0.0372 1.281  -1.934  11.811
0.0372 0.511  -2.347  13.368
-0.6497 1.780  -0.680  13.281
0.4215 1.454  -0.452  14.182
0.0372 -13.471  18.101   6.588
0.1166 -13.914  17.505   5.852
0.0372 -13.817  18.017   4.840
0.0372 -14.960  17.466   6.198
-0.6497 -13.331  16.161   5.804
0.4215 -13.722  15.637   6.524
0.0372 -11.847  17.181  -1.742
0.1166 -11.428  16.911  -0.778
0.0372 -11.979  17.429  -0.028
0.0372 -10.307  17.097  -0.705
-0.6497 -11.702  15.540  -0.690
0.4215 -11.057  14.975  -1.200
0.0372 -4.867   9.163  16.251
0.1166 -5.232   8.235  16.602
0.0372 -6.050   8.439  17.241
0.0372 -4.382   7.684  17.077
-0.6497 -5.819   7.579  15.494
0.4215 -6.323   6.711  15.707
0.0372 -9.788   9.396   4.087
0.1166 -9.154  10.323   4.161
0.0372 -9.712  11.012   4.778
0.0372 -9.095  10.799   3.181
-0.6497 -7.965   9.917   4.784
0.4215 -7.569  10.716   5.192
0.0372 -8.440   0.714  14.069
0.1166 -8.823   0.930  15.059
0.0372 -8.968   1.955  15.110
0.0372 -8.040   0.592  15.749
-0.6497 -9.976   0.197  15.333
0.4215 -10.584   0.806  15.749
0.0372 5.134   5.448  11.442
0.1166 5.292   6.242  10.692
0.0372 6.218   6.072  10.180
0.0372 5.169   7.236  11.109
-0.6497 4.341   6.077   9.664
0.4215 4.152   6.885   9.247
0.0372 1.074  12.717   2.419
0.1166 1.294  13.787   2.591
0.0372 0.388  14.285   2.765
0.0372 1.688  14.253   1.663
-0.6497 2.166  14.001   3.726
0.4215 1.965  14.959   3.890
0.0372 -17.131   8.337   1.395
0.1166 -17.267   7.572   2.074
0.0372 -17.186   8.020   3.063
0.0372 -16.501   6.718   1.883
-0.6497 -18.478   7.064   1.946
0.4215 -18.572   6.566   2.818
0.0372 -10.148  13.193  18.597
0.1166 -10.406  14.027  17.934
0.0372 -11.330  13.807  17.387
0.0372 -9.596  14.218  17.259
-0.6497 -10.633  15.059  18.815
0.4215 -10.858  15.858  18.270
0.0372 -2.089   3.145   5.974
0.1166 -1.548   3.332   6.879
0.0372 -0.843   2.433   6.985
0.0372 -2.169   3.451   7.745
-0.6497 -0.858   4.479   6.639
0.4215 -1.247   5.020   5.899
0.0372 -9.846   9.622   6.993
0.1166 -9.291   8.788   7.426
0.0372 -8.227   8.950   7.066
0.0372 -9.640   7.828   7.202
-0.6497 -9.189   8.933   8.816
0.4215 -9.977   8.358   9.197
0.0372 -9.991   6.970   3.995
0.1166 -9.098   6.346   3.891
0.0372 -8.773   6.477   2.861
0.0372 -9.327   5.331   4.142
-0.6497 -8.140   6.780   4.795
0.4215 -8.087   7.729   4.763
0.0372 -4.580   6.251  20.090
0.1166 -4.661   6.289  21.180
0.0372 -4.252   5.383  21.690
0.0372 -5.767   6.315  21.342
-0.6497 -3.962   7.341  21.758
0.4215 -4.166   8.121  21.204
0.0372 -9.525   6.011   8.524
0.1166 -8.874   5.127   8.588
0.0372 -8.684   4.790   7.522
0.0372 -9.422   4.342   9.174
-0.6497 -7.611   5.415   9.193
0.4215 -6.951   4.727   8.957
0.0372 -15.372   8.213  11.435
0.1166 -15.914   8.716  10.586
0.0372 -16.866   9.155  10.929
0.0372 -15.981   8.098   9.614
-0.6497 -15.075   9.843  10.185
0.4215 -15.348   9.970   9.234
0.0372 -5.266   7.840  26.222
0.1166 -5.370   7.817  25.151
0.0372 -5.735   8.789  24.792
0.0372 -6.017   6.992  24.809
-0.6497 -4.197   7.549  24.486
0.4215 -4.283   7.480  23.545
0.0372 -7.939  10.296  18.955
0.1166 -8.517   9.961  18.054
0.0372 -9.423   9.473  18.344
0.0372 -7.902   9.444  17.363
-0.6497 -8.974  11.120  17.456
0.4215 -9.546  10.879  16.797
0.0372 -0.073  11.431   3.998
0.1166 -0.335  10.383   3.946
0.0372 -1.105  10.039   4.544
0.0372 0.585   9.867   4.310
-0.6497 -0.484   9.942   2.661
0.4215 -0.077   9.029   2.642
0.0372 -9.884  18.456   4.449
0.1166 -10.770  18.070   4.711
0.0372 -11.287  18.162   3.806
0.0372 -11.275  18.753   5.347
-0.6497 -10.843  16.747   5.226
0.4215 -11.787  16.735   5.592
0.0372 -0.568   8.525  17.763
0.1166 -1.665   8.695  17.755
0.0372 -2.189   8.363  16.826
0.0372 -1.807   9.706  17.984
-0.6497 -2.291   7.885  18.801
0.4215 -3.134   8.278  18.818
0.0372 -12.505  11.305   8.584
0.1166 -11.906  11.388   9.515
0.0372 -11.956  12.416   9.864
0.0372 -10.831  11.190   9.333
-0.6497 -12.377  10.664  10.592
0.4215 -13.221  10.230  10.405
0.0372 -13.098   8.840  20.507
0.1166 -12.565   8.689  19.604
0.0372 -12.220   7.647  19.726
0.0372 -11.837   9.431  19.382
-0.6497 -13.450   8.726  18.487
0.4215 -14.007   9.532  18.505
0.0372 -4.054   5.120   5.912
0.1166 -4.877   5.749   6.060
0.0372 -4.844   6.504   5.298
0.0372 -4.837   6.308   6.985
-0.6497 -6.012   4.911   6.123
0.4215 -6.744   5.509   5.831
0.0372 2.547  13.510  11.440
0.1166 1.764  12.721  11.239
0.0372 1.984  12.184  10.317
0.0372 0.756  13.129  11.208
-0.6497 1.702  11.887  12.390
0.4215 2.382  11.238  12.327
0.0372 -3.892  11.157  19.917
0.1166 -4.556  10.659  19.223
0.0372 -3.906  10.647  18.330
0.0372 -5.545  11.062  19.211
-0.6497 -4.656   9.351  19.724
0.4215 -5.406   9.280  20.379
0.0372 -9.605  14.636  14.137
0.1166 -10.113  15.434  14.576
0.0372 -10.914  15.083  15.231
0.0372 -10.631  15.927  13.706
-0.6497 -9.212  16.297  15.209
0.4215 -8.657  15.683  15.717
0.0372 -19.979   3.407  19.609
0.1166 -19.364   3.714  20.393
0.0372 -19.114   2.838  21.000
0.0372 -20.016   4.437  20.893
-0.6497 -18.157   4.272  19.956
0.4215 -17.768   4.856  20.618
0.0372 -17.259   7.856  14.589
0.1166 -17.722   8.100  13.547
0.0372 -17.312   9.003  13.201
0.0372 -18.712   8.226  13.912
-0.6497 -17.756   7.057  12.653
0.4215 -16.949   6.483  12.698
0.0372 -8.718   2.288   5.481
0.1166 -9.663   2.869   5.300
0.0372 -10.085   2.753   4.349
0.0372 -9.483   3.919   5.448
-0.6497 -10.576   2.261   6.193
0.4215 -10.186   1.438   6.628
0.0372 -5.570   0.035  11.329
0.1166 -6.466   0.218  11.778
0.0372 -6.834  -0.682  12.105
0.0372 -7.191   0.486  11.055
-0.6497 -6.349   1.172  12.795
0.4215 -6.181   2.045  12.415
0.0372 -6.965   1.805   9.038
0.1166 -6.647   2.203   8.056
0.0372 -7.599   2.386   7.487
0.0372 -6.075   1.374   7.619
-0.6497 -5.926   3.351   8.393
0.4215 -5.550   3.645   7.577
0.0372 -2.850   6.290   7.745
0.1166 -2.932   6.263   8.821
0.0372 -2.080   5.677   9.082
0.0372 -3.868   5.722   9.116
-0.6497 -2.869   7.571   9.357
0.4215 -2.802   7.456  10.300
0.0372 -12.054   3.726   4.187
0.1166 -12.844   4.007   4.805
0.0372 -13.747   4.289   4.147
0.0372 -12.541   4.831   5.494
-0.6497 -13.192   2.900   5.649
0.4215 -12.367   2.687   6.163
0.0372 -9.770  11.902  14.466
0.1166 -10.812  11.515  14.457
0.0372 -11.032  10.856  13.592
0.0372 -11.459  12.398  14.498
-0.6497 -11.175  10.778  15.537
0.4215 -11.969  10.247  15.350
0.0372 -11.832   3.825  15.361
0.1166 -12.150   2.844  15.472
0.0372 -11.732   2.254  14.639
0.0372 -13.197   2.580  15.610
-0.6497 -11.410   2.239  16.489
0.4215 -11.223   2.812  17.217
0.0372 -2.433  -0.446  10.910
0.1166 -2.682   0.547  10.470
0.0372 -2.501   1.355  11.120
0.0372 -3.757   0.431  10.199
-0.6497 -1.720   0.784   9.445
0.4215 -0.844   0.833   9.813
0.0372 -18.726  10.574  13.735
0.1166 -18.711  11.513  14.164
0.0372 -18.783  11.238  15.226
0.0372 -19.533  12.140  13.830
-0.6497 -17.586  12.305  13.937
0.4215 -17.306  12.296  12.976
0.0372 -9.896  12.475  10.493
0.1166 -9.238  12.540  11.388
0.0372 -8.821  11.571  11.630
0.0372 -9.749  12.818  12.320
-0.6497 -8.038  13.386  11.120
0.4215 -7.263  12.766  11.102
0.0372 -17.997  -2.990   7.253
0.1166 -18.908  -2.469   7.353
0.0372 -19.637  -2.947   6.742
0.0372 -18.761  -1.463   6.948
-0.6497 -19.302  -2.375   8.729
0.4215 -19.042  -3.261   9.120
0.0372 -11.806  11.557   5.814
0.1166 -12.898  11.674   5.794
0.0372 -13.051  12.134   4.802
0.0372 -13.242  12.322   6.661
-0.6497 -13.427  10.310   5.928
0.4215 -13.148   9.800   5.194
0.0372 -5.579  10.243  22.780
0.1166 -6.595  10.007  22.503
0.0372 -7.198  10.957  22.335
0.0372 -7.162   9.625  23.430
-0.6497 -6.693   9.144  21.401
0.4215 -7.297   8.384  21.603
0.0372 -2.931   5.774  17.080
0.1166 -2.845   4.825  17.515
0.0372 -2.040   4.836  18.342
0.0372 -2.373   4.132  16.825
-0.6497 -4.147   4.322  17.897
0.4215 -4.607   4.023  17.096
0.0372 2.219   7.305   0.675
0.1166 2.188   8.014   1.435
0.0372 2.198   9.125   1.164
0.0372 3.164   7.866   1.892
-0.6497 1.147   7.610   2.278
0.4215 1.358   6.719   2.716
0.0372 -17.706   2.797   6.956
0.1166 -16.701   2.560   6.612
0.0372 -16.779   2.658   5.525
0.0372 -16.388   1.497   6.685
-0.6497 -15.692   3.438   6.927
0.4215 -14.892   3.132   6.432
0.0372 -12.159   8.537  11.572
0.1166 -11.144   8.139  11.309
0.0372 -10.808   7.478  12.114
0.0372 -10.492   9.024  11.214
-0.6497 -11.142   7.355  10.105
0.4215 -11.562   6.519  10.283
0.0372 -4.869  12.360  10.195
0.1166 -4.901  11.894  11.176
0.0372 -4.786  12.652  11.994
0.0372 -4.249  11.036  11.322
-0.6497 -6.200  11.428  11.135
0.4215 -6.376  10.785  10.406
0.0372 -18.301  18.952   7.863
0.1166 -17.664  19.786   8.040
0.0372 -18.307  20.626   7.849
0.0372 -16.782  19.996   7.416
-0.6497 -17.362  19.844   9.423
0.4215 -18.219  19.517   9.903
0.0372 7.921  13.236   4.167
0.1166 6.901  13.098   3.775
0.0372 6.224  12.462   4.367
0.0372 6.913  12.661   2.748
-0.6497 6.533  14.458   3.776
0.4215 6.478  14.880   4.654
0.0372 3.139   9.519  13.528
0.1166 4.047   9.356  13.005
0.0372 3.982   8.485  12.352
0.0372 4.814   8.972  13.737
-0.6497 4.264  10.539  12.276
0.4215 4.941  11.008  12.833
0.0372 -8.809   2.323  12.809
0.1166 -9.460   3.013  12.177
0.0372 -9.010   3.211  11.227
0.0372 -9.601   3.992  12.696
-0.6497 -10.781   2.491  11.928
0.4215 -10.789   1.529  12.000
0.0372 -15.967   4.584  17.716
0.1166 -15.326   4.937  16.844
0.0372 -14.314   4.807  17.158
0.0372 -15.475   6.016  16.681
-0.6497 -15.529   4.113  15.699
0.4215 -15.638   3.253  16.075
0.0372 6.302   6.961   2.912
0.1166 5.581   6.999   3.725
0.0372 4.768   7.573   3.383
0.0372 6.066   7.433   4.598
-0.6497 5.094   5.757   4.016
0.4215 5.715   5.268   4.561
0.0372 7.356  14.930  13.402
0.1166 6.480  15.448  12.860
0.0372 5.972  16.097  13.591
0.0372 5.835  14.574  12.666
-0.6497 6.873  16.097  11.635
0.4215 7.531  16.770  11.864
0.0372 -3.564   3.658  10.666
0.1166 -4.202   3.941  11.454
0.0372 -4.457   4.938  11.259
0.0372 -3.743   3.823  12.428
-0.6497 -5.365   3.183  11.260
0.4215 -5.495   3.164  10.319
0.0372 -1.400  16.668  10.836
0.1166 -0.562  16.300  11.392
0.0372 -0.894  15.499  12.017
0.0372 -0.246  17.036  12.120
-0.6497 0.477  15.946  10.496
0.4215 0.157  15.153   9.990
0.0372 3.974  -1.851  10.391
0.1166 4.410  -1.849  11.340
0.0372 5.471  -1.906  11.146
0.0372 4.197  -2.766  11.910
-0.6497 4.112  -0.670  12.074
0.4215 3.204  -0.644  12.395
0.0372 -6.645   7.343  13.242
0.1166 -7.153   6.538  12.542
0.0372 -7.903   6.043  13.157
0.0372 -6.419   5.866  12.227
-0.6497 -7.846   7.236  11.515
0.4215 -8.436   6.672  10.976
0.0372 -11.928   8.482   2.305
0.1166 -12.859   8.029   2.830
0.0372 -12.868   6.994   2.551
0.0372 -13.721   8.694   2.640
-0.6497 -12.632   8.006   4.271
0.4215 -13.442   7.688   4.757
0.0372 -4.667  -0.423  21.160
0.1166 -3.841  -0.930  20.684
0.0372 -2.930  -0.886  21.260
0.0372 -3.703  -0.483  19.716
-0.6497 -4.133  -2.337  20.511
0.4215 -3.910  -2.741  21.344
0.0372 -4.198  -1.007   6.522
0.1166 -3.924  -0.613   7.537
0.0372 -3.333  -1.363   8.072
0.0372 -4.725  -0.228   8.184
-0.6497 -3.180   0.584   7.316
0.4215 -2.597   0.729   8.071
0.0372 -4.033   9.738   6.773
0.1166 -3.210  10.318   7.187
0.0372 -3.545  10.824   8.093
0.0372 -2.976  10.989   6.430
-0.6497 -2.112   9.500   7.543
0.4215 -2.282   8.858   8.306
0.0372 -3.443  16.567   0.863
0.1166 -4.355  15.996   1.164
0.0372 -5.124  15.985   0.414
0.0372 -4.678  16.650   1.989
-0.6497 -4.196  14.688   1.675
0.4215 -4.894  14.105   1.273
0.0372 -9.032   5.594  16.454
0.1166 -8.474   4.695  16.076
0.0372 -8.883   4.436  15.108
0.0372 -8.437   3.945  16.879
-0.6497 -7.156   5.159  15.708
0.4215 -6.556   4.403  15.632
0.0372 -9.576   8.638  -0.251
0.1166 -9.263   8.564   0.775
0.0372 -9.641   7.633   1.184
0.0372 -9.612   9.322   1.455
-0.6497 -7.830   8.507   0.757
0.4215 -7.534   7.708   0.373
0.0372 -0.081  14.603   5.016
0.1166 -0.384  14.983   6.005
0.0372 -0.373  16.060   5.903
0.0372 0.430  14.722   6.607
-0.6497 -1.680  14.446   6.516
0.4215 -2.191  14.419   5.688
0.0372 -17.395  22.693  -1.570
0.1166 -16.581  23.371  -1.236
0.0372 -16.821  24.024  -0.383
0.0372 -16.223  23.939  -2.048
-0.6497 -15.481  22.668  -0.752
0.4215 -15.319  21.907  -1.387
0.0372 -14.545  12.413  16.861
0.1166 -15.328  11.781  17.192
0.0372 -15.681  11.112  16.408
0.0372 -16.200  12.356  17.589
-0.6497 -14.721  11.052  18.336
0.4215 -14.639  11.611  19.134
0.0372 -6.809  15.245   3.326
0.1166 -6.293  15.632   4.232
0.0372 -5.839  16.633   4.123
0.0372 -5.464  15.001   4.464
-0.6497 -7.215  15.618   5.276
0.4215 -7.935  16.243   5.046
0.0372 -6.662   9.579  14.330
0.1166 -7.262  10.409  14.258
0.0372 -7.976  10.482  15.062
0.0372 -7.809  10.282  13.321
-0.6497 -6.424  11.575  14.045
0.4215 -6.089  11.543  13.139
0.0372 -2.266  25.501  19.871
0.1166 -1.808  25.039  18.991
0.0372 -0.695  25.179  19.173
0.0372 -2.089  25.544  18.102
-0.6497 -2.169  23.671  18.985
0.4215 -1.786  23.286  18.130
0.0372 -19.748   3.048  12.894
0.1166 -18.804   3.620  12.771
0.0372 -17.954   2.914  12.678
0.0372 -18.532   4.163  13.624
-0.6497 -18.960   4.485  11.615
0.4215 -18.525   5.312  11.828
0.0372 -11.112   2.083  23.038
0.1166 -10.905   0.993  23.049
0.0372 -10.463   0.715  23.979
0.0372 -10.354   0.790  22.166
-0.6497 -12.158   0.404  22.969
0.4215 -12.220  -0.000  22.133
0.0372 -18.692  -1.326  14.563
0.1166 -18.481  -0.961  13.530
0.0372 -19.380  -0.562  13.061
0.0372 -18.168  -1.661  12.842
-0.6497 -17.486   0.057  13.521
0.4215 -17.738   0.710  14.185
0.0372 -2.878   1.771  20.222
0.1166 -3.244   2.416  20.995
0.0372 -2.565   3.218  21.250
0.0372 -3.639   1.866  21.864
-0.6497 -4.420   3.111  20.492
0.4215 -4.208   3.580  19.671
0.0372 3.058   3.795   7.023
0.1166 3.536   2.864   6.635
0.0372 2.871   2.043   6.750
0.0372 4.427   2.726   7.215
-0.6497 3.974   3.021   5.337
0.4215 4.552   2.338   5.090
0.0372 -4.868   8.842   9.185
0.1166 -5.886   8.536   8.811
0.0372 -6.299   7.721   9.440
0.0372 -5.897   8.372   7.715
-0.6497 -6.630   9.701   9.117
0.4215 -7.576   9.585   9.012
0.0372 -14.894  16.091  14.529
0.1166 -14.554  16.486  15.503
0.0372 -15.001  15.929  16.317
0.0372 -14.867  17.518  15.530
-0.6497 -13.171  16.250  15.582
0.4215 -12.997  15.322  15.479
0.0372 -17.407   5.309   8.984
0.1166 -18.022   5.851   8.170
0.0372 -18.096   6.958   8.223
0.0372 -19.058   5.557   8.235
-0.6497 -17.421   5.627   6.966
0.4215 -16.889   4.815   7.033
0.0372 -14.488  12.762  14.216
0.1166 -14.358  13.238  13.258
0.0372 -15.223  13.854  12.840
0.0372 -14.146  12.446  12.495
-0.6497 -13.215  14.043  13.474
0.4215 -13.012  14.648  12.746
0.0372 6.587  10.316   7.474
0.1166 7.688  10.277   7.194
0.0372 7.797   9.367   6.616
0.0372 8.442  10.212   7.939
-0.6497 7.976  11.355   6.420
0.4215 8.257  12.057   6.977
0.0372 -14.479  -0.130  13.241
0.1166 -14.316   0.590  12.479
0.0372 -13.462   0.260  11.919
0.0372 -14.117   1.575  13.019
-0.6497 -15.393   0.510  11.597
0.4215 -16.263   0.620  12.026
0.0372 -15.127  14.165   9.734
0.1166 -15.145  13.922   8.606
0.0372 -16.185  13.890   8.224
0.0372 -14.832  12.857   8.327
-0.6497 -14.497  14.930   7.897
0.4215 -14.694  15.680   8.523
0.0372 -3.262  17.678  18.068
0.1166 -3.648  17.153  18.948
0.0372 -3.971  16.099  18.913
0.0372 -4.525  17.685  19.347
-0.6497 -2.667  17.148  19.962
0.4215 -2.718  18.001  20.414
0.0372 -12.656  11.200  26.361
0.1166 -13.284  10.292  26.339
0.0372 -14.297  10.542  26.728
0.0372 -12.760   9.503  26.928
-0.6497 -13.412   9.811  25.060
0.4215 -12.584   9.853  24.560
0.0372 -6.925  17.167  12.485
0.1166 -7.893  17.237  11.954
0.0372 -8.036  18.355  11.811
0.0372 -8.688  16.881  12.646
-0.6497 -7.827  16.397  10.853
0.4215 -7.904  15.523  11.274
0.0372 -4.229  19.031  10.019
0.1166 -3.179  19.007   9.598
0.0372 -2.451  18.960  10.403
0.0372 -3.018  20.004   9.142
-0.6497 -2.837  17.959   8.734
0.4215 -3.546  17.871   8.091
0.0372 -2.653  15.183  17.024
0.1166 -1.949  15.657  16.251
0.0372 -0.952  15.205  16.396
0.0372 -1.957  16.760  16.266
-0.6497 -2.364  15.185  14.991
0.4215 -2.041  14.234  15.017
0.0372 -15.891  10.474   5.494
0.1166 -16.541  10.506   6.374
0.0372 -17.184   9.652   6.249
0.0372 -17.225  11.315   6.621
-0.6497 -15.656  10.338   7.439
0.4215 -14.868  10.215   6.907
0.0372 -18.721  13.208  18.757
0.1166 -19.743  13.546  18.544
0.0372 -19.827  14.671  18.335
0.0372 -20.301  13.247  19.399
-0.6497 -20.183  12.742  17.458
0.4215 -21.034  12.296  17.624
0.0372 -14.082   4.487  13.078
0.1166 -14.569   5.298  12.624
0.0372 -14.932   5.087  11.612
0.0372 -13.852   6.132  12.591
-0.6497 -15.590   5.782  13.374
0.4215 -15.518   5.211  14.180
0.0372 3.612  -1.069  19.429
0.1166 3.310  -0.508  18.574
0.0372 4.163   0.174  18.273
0.0372 2.365  -0.009  18.783
-0.6497 3.104  -1.459  17.507
0.4215 2.135  -1.722  17.570
0.0372 -12.613   6.828  15.349
0.1166 -11.680   6.824  15.912
0.0372 -11.344   7.885  16.035
0.0372 -10.888   6.254  15.445
-0.6497 -11.975   6.432  17.203
0.4215 -12.565   7.078  17.654
0.0372 4.194  11.088   4.956
0.1166 3.607  10.868   4.031
0.0372 2.593  10.603   4.279
0.0372 4.022  10.034   3.577
-0.6497 3.572  11.943   3.067
0.4215 3.306  12.707   3.631
0.0372 -15.528  14.277  18.892
0.1166 -14.574  14.429  19.348
0.0372 -14.579  15.354  19.942
0.0372 -13.840  14.379  18.541
-0.6497 -14.554  13.309  20.185
0.4215 -13.745  13.439  20.713
0.0372 -12.600  13.038  23.557
0.1166 -11.928  13.706  23.110
0.0372 -10.946  13.230  22.891
0.0372 -11.715  14.607  23.734
-0.6497 -12.468  14.200  21.893
0.4215 -11.933  14.976  21.618
0.0372 -16.193  15.493  11.615
0.1166 -16.773  16.375  11.752
0.0372 -16.069  17.200  11.833
0.0372 -17.573  16.339  12.531
-0.6497 -17.518  16.684  10.543
0.4215 -18.163  17.394  10.678
0.0372 -2.792  12.139   3.041
0.1166 -2.844  12.680   3.971
0.0372 -2.039  12.374   4.565
0.0372 -3.686  12.359   4.511
-0.6497 -2.711  14.100   3.833
0.4215 -3.214  14.376   3.128
0.0372 -1.468   6.746   5.975
0.1166 -1.517   7.260   4.994
0.0372 -0.438   7.572   4.767
0.0372 -2.136   8.161   5.087
-0.6497 -2.054   6.446   3.906
0.4215 -2.455   7.025   3.242
0.0372 -13.481  10.889 -10.360
0.1166 -14.000  10.710  -9.374
0.0372 -13.717   9.695  -9.017
0.0372 -15.079  10.747  -9.450
-0.6497 -13.726  11.799  -8.564
0.4215 -13.215  12.451  -9.094
0.0372 -12.371  12.766   1.143
0.1166 -12.180  11.927   1.824
0.0372 -12.712  12.132   2.733
0.0372 -11.118  11.750   2.051
-0.6497 -12.735  10.767   1.271
0.4215 -12.590  10.834   0.311
0.0372 -4.097   3.180 -10.060
0.1166 -3.275   3.869 -10.112
0.0372 -3.160   4.008 -11.183
0.0372 -2.407   3.407  -9.580
-0.6497 -3.679   5.082  -9.518
0.4215 -3.427   5.800 -10.170
0.0372 1.904   0.966 -18.887
0.1166 2.955   1.368 -18.857
0.0372 3.317   1.452 -19.860
0.0372 3.537   0.651 -18.309
-0.6497 2.887   2.568 -17.997
0.4215 3.489   2.329 -17.268
0.0372 -4.258   2.422   0.275
0.1166 -3.742   1.782  -0.484
0.0372 -4.420   1.792  -1.294
0.0372 -3.639   0.790  -0.148
-0.6497 -2.632   2.485  -0.784
0.4215 -1.967   1.942  -1.274
0.0372 -5.168   1.395 -18.401
0.1166 -4.247   1.670 -17.849
0.0372 -4.633   2.463 -17.178
0.0372 -3.523   2.163 -18.508
-0.6497 -3.602   0.761 -16.961
0.4215 -2.696   0.541 -17.344
0.0372 -7.307  17.520 -12.633
0.1166 -7.264  17.227 -11.630
0.0372 -7.045  18.132 -11.107
0.0372 -6.566  16.446 -11.534
-0.6497 -8.546  16.764 -11.164
0.4215 -9.233  17.279 -11.621
0.0372 -14.991  -0.142  -1.178
0.1166 -13.973  -0.338  -1.417
0.0372 -13.717  -1.397  -1.233
0.0372 -13.384   0.341  -0.810
-0.6497 -13.852  -0.257  -2.807
0.4215 -14.611  -0.763  -3.217
0.0372 -13.770   1.764 -11.849
0.1166 -14.030   1.839 -12.913
0.0372 -13.906   2.864 -13.233
0.0372 -15.065   1.642 -13.154
-0.6497 -13.279   0.956 -13.670
0.4215 -12.356   1.172 -13.384
0.0372 -3.523  18.477  -4.962
0.1166 -4.004  17.952  -5.746
0.0372 -4.010  16.882  -5.701
0.0372 -3.334  18.149  -6.581
-0.6497 -5.284  18.501  -6.008
0.4215 -5.864  18.090  -5.374
0.0372 -7.688  -0.985 -19.421
0.1166 -8.522  -0.684 -20.084
0.0372 -9.472  -1.036 -19.741
0.0372 -8.437  -1.137 -21.059
-0.6497 -8.508   0.721 -20.207
0.4215 -8.327   1.033 -19.347
0.0372 -13.610   5.263 -10.774
0.1166 -14.679   5.415 -10.972
0.0372 -15.233   4.566 -11.274
0.0372 -14.699   6.271 -11.747
-0.6497 -15.312   5.949  -9.871
0.4215 -15.218   5.376  -9.072
0.0372 -6.708  -1.706 -11.807
0.1166 -6.883  -1.212 -10.808
0.0372 -7.594  -0.374 -10.969
0.0372 -5.848  -0.807 -10.657
-0.6497 -7.259  -2.012  -9.781
0.4215 -7.375  -1.453  -8.929
0.0372 -10.566  16.194  -3.854
0.1166 -10.424  16.872  -4.682
0.0372 -10.456  16.230  -5.580
0.0372 -9.467  17.429  -4.732
-0.6497 -11.458  17.883  -4.664
0.4215 -12.295  17.486  -5.051
0.0372 -11.909  10.128  -2.573
0.1166 -12.663  10.783  -2.322
0.0372 -13.612  10.249  -2.056
0.0372 -13.057  11.500  -3.121
-0.6497 -12.137  11.430  -1.235
0.4215 -11.645  12.196  -1.632
0.0372 -0.550   2.552  -3.713
0.1166 -0.153   3.596  -3.888
0.0372 0.726   3.556  -3.404
0.0372 -0.914   4.359  -3.600
-0.6497 0.225   3.828  -5.247
0.4215 -0.552   3.821  -5.782
0.0372 -19.091  12.741   6.636
0.1166 -19.623  12.685   5.687
0.0372 -18.869  13.160   5.026
0.0372 -20.530  13.228   5.676
-0.6497 -19.934  11.368   5.199
0.4215 -20.444  11.443   4.415
0.0372 -16.832  19.148   0.290
0.1166 -16.274  18.431   0.896
0.0372 -16.939  18.047   1.758
0.0372 -15.342  18.959   1.225
-0.6497 -15.896  17.481  -0.068
0.4215 -15.249  16.869   0.339
0.0372 -1.944   9.003 -27.614
0.1166 -1.047   9.441 -27.093
0.0372 -1.051  10.539 -27.105
0.0372 -0.250   9.016 -27.709
-0.6497 -0.859   8.990 -25.794
0.4215 -1.083   9.779 -25.259
0.0372 -9.308  12.209 -10.155
0.1166 -8.625  11.538 -10.631
0.0372 -9.178  10.869 -11.281
0.0372 -8.031  11.033  -9.875
-0.6497 -7.776  12.296 -11.545
0.4215 -8.376  12.811 -12.096
0.0372 9.078  11.396  -4.131
0.1166 8.713  11.873  -3.231
0.0372 8.059  12.623  -3.607
0.0372 9.545  12.295  -2.648
-0.6497 7.881  10.947  -2.659
0.4215 7.630  11.332  -1.757
0.0372 -16.545   7.407  -7.887
0.1166 -17.191   8.313  -8.068
0.0372 -17.787   8.181  -8.952
0.0372 -16.486   9.180  -8.190
-0.6497 -18.176   8.513  -7.058
0.4215 -17.665   8.579  -6.242
0.0372 -12.666  -0.952   5.619
0.1166 -13.663  -0.499   5.456
0.0372 -13.929  -0.319   4.402
0.0372 -13.638   0.529   5.868
-0.6497 -14.533  -1.222   6.377
0.4215 -14.652  -0.707   7.211
0.0372 -0.832   6.200   1.358
0.1166 -0.663   6.226   0.295
0.0372 -0.585   5.201  -0.041
0.0372 0.261   6.617   0.176
-0.6497 -1.757   6.903  -0.307
0.4215 -1.583   6.889  -1.266
0.0372 -13.363   8.791 -18.698
0.1166 -12.617   8.923 -17.918
0.0372 -11.665   8.616 -18.236
0.0372 -12.962   8.281 -17.120
-0.6497 -12.594  10.332 -17.618
0.4215 -12.798  10.972 -18.346
0.0372 -1.338   8.348  -4.423
0.1166 -1.649   8.253  -3.457
0.0372 -2.781   8.142  -3.448
0.0372 -1.224   9.059  -2.824
-0.6497 -1.255   7.025  -3.038
0.4215 -0.330   6.982  -2.951
0.0372 -1.108   7.478 -18.625
0.1166 -1.636   6.970 -19.397
0.0372 -1.189   7.127 -20.336
0.0372 -2.651   7.306 -19.519
-0.6497 -1.598   5.533 -19.025
0.4215 -0.673   5.154 -19.195
0.0372 -10.699   2.398  -5.317
0.1166 -9.738   2.721  -5.790
0.0372 -9.668   3.778  -5.884
0.0372 -9.813   2.209  -6.764
-0.6497 -8.803   2.224  -4.909
0.4215 -7.975   2.044  -5.343
0.0372 3.186   3.820  -4.036
0.1166 3.917   3.216  -3.493
0.0372 3.480   2.347  -2.994
0.0372 4.419   3.896  -2.702
-0.6497 4.787   2.730  -4.483
0.4215 5.078   3.598  -4.892
0.0372 2.051  14.518 -14.768
0.1166 2.614  15.324 -14.361
0.0372 3.634  15.231 -14.604
0.0372 2.388  15.293 -13.292
-0.6497 2.228  16.599 -14.903
0.4215 1.240  16.662 -14.771
0.0372 -12.005   6.720  -9.934
0.1166 -11.061   7.293 -10.195
0.0372 -10.799   6.997 -11.205
0.0372 -10.264   7.101  -9.494
-0.6497 -11.363   8.639  -9.971
0.4215 -10.667   8.946  -9.340
0.0372 -12.817  20.856   0.617
0.1166 -11.736  20.958   0.540
0.0372 -11.506  22.025   0.711
0.0372 -11.377  20.578  -0.412
-0.6497 -11.119  20.185   1.552
0.4215 -11.601  20.261   2.405
0.0372 -3.764   5.335  -5.771
0.1166 -2.701   5.283  -5.818
0.0372 -2.327   5.053  -4.779
0.0372 -2.257   6.149  -6.188
-0.6497 -2.325   4.274  -6.732
0.4215 -2.995   4.315  -7.429
0.0372 -3.973  10.808  -8.854
0.1166 -5.019  10.855  -9.208
0.0372 -5.611  10.121  -8.630
0.0372 -5.140  10.545 -10.255
-0.6497 -5.450  12.212  -9.092
0.4215 -6.229  12.428  -9.681
0.0372 -18.289   7.289 -18.075
0.1166 -17.918   7.826 -17.207
0.0372 -18.433   7.570 -16.298
0.0372 -17.986   8.922 -17.492
-0.6497 -16.531   7.420 -16.976
0.4215 -16.012   7.674 -17.783
0.0372 -2.728  11.911   0.608
0.1166 -1.969  11.296   0.213
0.0372 -2.059  11.415  -0.866
0.0372 -2.086  10.345   0.622
-0.6497 -0.785  11.749   0.750
0.4215 -0.715  11.279   1.592
0.0372 -3.133   8.451 -14.105
0.1166 -2.046   8.271 -13.998
0.0372 -1.442   8.779 -13.256
0.0372 -1.581   8.468 -14.969
-0.6497 -2.026   6.893 -13.649
0.4215 -2.142   6.413 -14.463
0.0372 -6.898   5.116 -12.210
0.1166 -7.186   5.212 -11.157
0.0372 -6.563   6.019 -10.734
0.0372 -6.866   4.301 -10.663
-0.6497 -8.558   5.407 -11.082
0.4215 -8.921   5.531 -11.996
0.0372 -2.555  13.788  -0.578
0.1166 -1.747  14.485  -0.743
0.0372 -1.762  15.178   0.159
0.0372 -2.055  15.008  -1.648
-0.6497 -0.538  13.799  -0.921
0.4215 -0.649  13.172  -0.179
0.0372 2.694  13.743  -4.244
0.1166 2.027  14.288  -3.553
0.0372 1.582  15.149  -4.045
0.0372 2.621  14.689  -2.643
-0.6497 0.894  13.501  -3.158
0.4215 0.499  13.739  -2.246
0.0372 -16.104   4.403 -18.810
0.1166 -15.086   4.336 -18.441
0.0372 -14.602   3.345 -18.724
0.0372 -14.983   4.526 -17.387
-0.6497 -14.504   5.331 -19.257
0.4215 -13.690   4.912 -19.622
0.0372 -6.680  20.407 -16.533
0.1166 -6.945  21.030 -15.667
0.0372 -7.915  21.494 -15.839
0.0372 -6.265  21.885 -15.498
-0.6497 -7.131  20.278 -14.496
0.4215 -6.437  20.536 -13.887
0.0372 2.100   5.294   0.764
0.1166 2.490   4.591   0.040
0.0372 1.748   3.933  -0.235
0.0372 3.386   4.101   0.405
-0.6497 2.896   5.379  -1.051
0.4215 3.871   5.647  -0.994
0.0372 -7.239   9.103  -7.846
0.1166 -7.831   8.700  -8.662
0.0372 -8.006   7.615  -8.481
0.0372 -7.477   8.974  -9.633
-0.6497 -9.087   9.158  -8.389
0.4215 -9.311   9.182  -7.455
0.0372 -8.724  19.019  -8.413
0.1166 -8.134  18.213  -7.989
0.0372 -7.902  18.420  -6.871
0.0372 -7.197  18.170  -8.520
-0.6497 -8.814  17.041  -8.184
0.4215 -8.799  16.865  -9.123
0.0372 -3.932   6.186  -3.507
0.1166 -4.301   5.340  -2.878
0.0372 -3.538   4.644  -2.944
0.0372 -5.201   4.861  -3.383
-0.6497 -4.571   5.721  -1.537
0.4215 -3.764   5.708  -1.074
0.0372 2.368   6.350 -18.286
0.1166 3.441   6.206 -18.629
0.0372 3.328   6.677 -19.629
0.0372 3.667   5.174 -18.592
-0.6497 4.380   6.890 -17.895
0.4215 4.329   6.618 -16.888
0.0372 2.375  11.190   0.057
0.1166 3.265  11.629  -0.307
0.0372 3.202  12.654  -0.534
0.0372 3.329  11.193  -1.274
-0.6497 4.331  11.127   0.443
0.4215 4.189  11.299   1.424
0.0372 -16.211  18.418 -10.326
0.1166 -15.164  18.333 -10.060
0.0372 -14.448  18.678 -10.777
0.0372 -14.833  17.338  -9.704
-0.6497 -14.935  19.229  -9.012
0.4215 -14.099  19.703  -9.207
0.0372 -11.103   8.457  -4.984
0.1166 -10.968   9.399  -5.421
0.0372 -11.382  10.136  -4.825
0.0372 -11.385   9.572  -6.373
-0.6497 -9.551   9.549  -5.583
0.4215 -9.231   9.708  -4.662
0.0372 -8.727  10.715  -1.558
0.1166 -7.900  10.673  -2.281
0.0372 -7.144  10.345  -1.583
0.0372 -7.720  11.691  -2.677
-0.6497 -8.060   9.756  -3.357
0.4215 -7.950   8.898  -2.955
0.0372 -10.046   3.368 -12.245
0.1166 -10.423   2.406 -11.916
0.0372 -11.438   2.423 -11.395
0.0372 -9.752   1.970 -11.168
-0.6497 -10.489   1.488 -13.066
0.4215 -9.581   1.644 -13.547
0.0372 -4.554  -0.172  -3.691
0.1166 -4.448   0.879  -4.011
0.0372 -3.539   1.304  -3.667
0.0372 -5.395   1.377  -3.687
-0.6497 -4.410   0.876  -5.455
0.4215 -3.723   0.355  -5.832
0.0372 -6.302   1.925 -12.959
0.1166 -7.063   2.442 -13.571
0.0372 -6.556   2.868 -14.451
0.0372 -7.471   3.310 -13.109
-0.6497 -7.997   1.431 -14.008
0.4215 -7.482   0.916 -14.648
0.0372 -2.161  10.331  -7.751
0.1166 -2.320   9.944  -6.766
0.0372 -3.211  10.438  -6.351
0.0372 -1.457  10.187  -6.121
-0.6497 -2.365   8.583  -7.050
0.4215 -3.227   8.219  -6.771
0.0372 -12.063   4.988  -8.595
0.1166 -11.388   4.248  -9.007
0.0372 -11.385   4.187 -10.133
0.0372 -11.574   3.270  -8.592
-0.6497 -10.055   4.550  -8.682
0.4215 -9.781   5.167  -9.318
0.0372 -8.759  14.256  -1.176
0.1166 -9.228  14.398  -2.166
0.0372 -8.547  13.983  -2.864
0.0372 -9.263  15.439  -2.319
-0.6497 -10.462  13.714  -2.209
0.4215 -10.857  13.855  -3.097
0.0372 -7.235   2.375  -2.174
0.1166 -7.668   2.824  -1.340
0.0372 -8.445   3.542  -1.549
0.0372 -6.866   3.370  -0.815
-0.6497 -8.208   1.788  -0.504
0.4215 -8.790   1.166  -0.940
0.0372 0.842   4.815  -8.439
0.1166 0.680   4.240  -9.305
0.0372 0.238   4.745 -10.192
0.0372 0.044   3.382  -8.979
-0.6497 1.939   3.660  -9.658
0.4215 2.171   3.045  -8.948
0.0372 -15.426  15.951  -6.012
0.1166 -14.923  16.886  -5.800
0.0372 -15.585  17.339  -5.002
0.0372 -14.818  17.426  -6.731
-0.6497 -13.702  16.611  -5.232
0.4215 -13.889  16.506  -4.251
0.0372 -7.436  13.922  -8.000
0.1166 -8.492  13.877  -7.770
0.0372 -8.824  12.856  -7.387
0.0372 -9.054  14.150  -8.725
-0.6497 -8.767  14.781  -6.713
0.4215 -8.628  15.704  -6.984
0.0372 -25.802  -1.787  -7.536
0.1166 -24.918  -2.427  -7.708
0.0372 -24.988  -2.787  -8.683
0.0372 -24.964  -3.457  -7.134
-0.6497 -23.747  -1.653  -7.593
0.4215 -23.032  -2.288  -7.845
0.0372 -8.142   6.765 -14.445
0.1166 -8.584   5.766 -14.432
0.0372 -7.630   5.297 -13.998
0.0372 -8.956   5.476 -15.414
-0.6497 -9.692   5.571 -13.512
0.4215 -10.590   5.829 -13.877
0.0372 -4.268   9.535   2.586
0.1166 -4.477   8.858   1.761
0.0372 -4.338   9.385   0.775
0.0372 -5.462   8.521   1.759
-0.6497 -3.572   7.793   1.866
0.4215 -2.936   7.869   1.099
0.0372 -11.096   5.142   0.966
0.1166 -10.787   4.160   0.583
0.0372 -10.108   4.363  -0.207
0.0372 -11.600   3.620   0.187
-0.6497 -10.315   3.328   1.624
0.4215 -9.971   2.500   1.358
0.0372 0.625   4.768 -21.007
0.1166 1.065   3.981 -20.487
0.0372 2.150   3.943 -20.696
0.0372 0.711   3.057 -20.963
-0.6497 0.724   3.983 -19.114
0.4215 1.373   3.391 -18.721
0.0372 -24.533   2.706 -14.409
0.1166 -23.861   3.588 -14.211
0.0372 -24.048   3.971 -13.127
0.0372 -24.142   4.333 -15.004
-0.6497 -22.500   3.257 -14.282
0.4215 -22.180   2.642 -13.518
0.0372 -6.398   8.824  -4.959
0.1166 -5.533   8.197  -4.858
0.0372 -5.663   7.239  -4.373
0.0372 -4.839   8.840  -4.283
-0.6497 -4.896   8.011  -6.089
0.4215 -5.393   7.415  -6.783
0.0372 -4.036  14.885  -9.728
0.1166 -3.173  14.885  -9.130
0.0372 -3.534  15.244  -8.193
0.0372 -2.313  15.470  -9.535
-0.6497 -2.576  13.642  -8.880
0.4215 -3.349  13.036  -8.873
0.0372 -1.395  12.786 -16.619
0.1166 -1.989  13.659 -16.611
0.0372 -1.594  14.369 -15.890
0.0372 -2.993  13.372 -16.467
-0.6497 -1.724  14.145 -17.907
0.4215 -1.848  13.414 -18.523
0.0372 4.236   7.327 -10.643
0.1166 3.456   6.705 -11.198
0.0372 2.606   7.396 -11.492
0.0372 3.038   5.982 -10.519
-0.6497 4.175   6.111 -12.279
0.4215 4.608   5.315 -11.904
0.0372 -7.216   4.786   1.444
0.1166 -6.477   5.395   0.997
0.0372 -5.625   4.730   0.732
0.0372 -6.135   6.227   1.700
-0.6497 -6.974   6.058  -0.193
0.4215 -6.102   6.087  -0.682
0.0372 -11.585   2.304  -3.086
0.1166 -11.018   1.838  -2.281
0.0372 -11.747   1.307  -1.586
0.0372 -10.532   2.670  -1.825
-0.6497 -10.017   0.850  -2.770
0.4215 -9.518   1.168  -3.577
0.0372 2.142   7.619 -15.655
0.1166 2.898   7.893 -14.908
0.0372 2.412   7.748 -13.938
0.0372 3.218   8.904 -14.996
-0.6497 3.950   6.929 -14.993
0.4215 4.141   6.519 -14.136
0.0372 0.812  11.044  -6.220
0.1166 1.841  10.746  -6.507
0.0372 1.878   9.715  -6.904
0.0372 2.395  10.895  -5.584
-0.6497 2.329  11.654  -7.471
0.4215 2.501  11.199  -8.328
0.0372 -9.454   1.325 -17.523
0.1166 -8.840   2.159 -17.212
0.0372 -9.084   2.083 -16.135
0.0372 -9.229   3.166 -17.621
-0.6497 -7.460   2.071 -17.461
0.4215 -7.096   1.404 -16.865
0.0372 2.960  11.215 -11.461
0.1166 3.530  10.970 -10.560
0.0372 3.771  11.874 -10.075
0.0372 4.488  10.532 -10.897
-0.6497 2.787  10.075  -9.738
0.4215 1.973   9.849 -10.248
0.0372 -2.032  12.679  -3.220
0.1166 -1.944  11.922  -3.965
0.0372 -2.312  12.426  -4.850
0.0372 -2.753  11.197  -3.758
-0.6497 -0.685  11.358  -4.114
0.4215 -0.024  12.083  -4.055
0.0372 -13.180   2.805 -20.019
0.1166 -12.235   3.260 -20.277
0.0372 -12.227   3.499 -21.390
0.0372 -11.501   2.526 -19.886
-0.6497 -11.954   4.426 -19.496
0.4215 -10.981   4.601 -19.388
0.0372 -6.952  -1.650 -15.239
0.1166 -6.116  -1.173 -15.851
0.0372 -6.121  -1.473 -16.860
0.0372 -5.146  -1.605 -15.528
-0.6497 -6.114   0.221 -15.852
0.4215 -5.255   0.481 -16.243
0.0372 -2.305   3.686 -15.844
0.1166 -3.030   4.460 -15.645
0.0372 -3.123   4.433 -14.586
0.0372 -3.878   4.279 -16.289
-0.6497 -2.433   5.702 -15.981
0.4215 -2.404   5.769 -16.978
0.0372 -4.417   6.081 -22.040
0.1166 -4.280   6.794 -22.789
0.0372 -5.142   6.933 -23.406
0.0372 -3.506   6.442 -23.428
-0.6497 -3.983   8.095 -22.264
0.4215 -4.054   8.709 -22.996
0.0372 -6.447  17.264  -2.181
0.1166 -7.088  17.795  -2.887
0.0372 -7.004  18.836  -2.691
0.0372 -8.113  17.594  -2.800
-0.6497 -6.725  17.391  -4.240
0.4215 -6.498  16.483  -4.256
0.0372 -4.762   8.219 -10.504
0.1166 -3.983   8.330 -11.237
0.0372 -3.164   8.981 -10.910
0.0372 -4.276   8.549 -12.237
-0.6497 -3.293   7.085 -11.360
0.4215 -2.602   7.148 -12.035
0.0372 1.575   8.789 -19.365
0.1166 1.593   9.639 -20.062
0.0372 2.296   9.337 -20.836
0.0372 1.959  10.560 -19.653
-0.6497 0.305   9.790 -20.702
0.4215 0.271   9.060 -21.323
0.0372 -16.175  10.722  -6.479
0.1166 -15.463  11.081  -5.740
0.0372 -15.616  10.518  -4.801
0.0372 -15.423  12.158  -5.474
-0.6497 -14.170  10.639  -6.223
0.4215 -14.025  11.098  -7.065
0.0372 -12.964  16.201 -15.700
0.1166 -12.656  17.157 -15.491
0.0372 -13.218  17.828 -16.138
0.0372 -11.635  17.223 -15.681
-0.6497 -12.947  17.365 -14.139
0.4215 -13.865  17.239 -14.001
0.0372 -5.133  13.196  -6.043
0.1166 -5.705  12.290  -5.690
0.0372 -5.051  11.869  -4.924
0.0372 -5.855  11.656  -6.472
-0.6497 -6.942  12.675  -5.155
0.4215 -7.408  13.260  -5.762
0.0372 2.584  17.141  -0.861
0.1166 1.596  17.390  -1.230
0.0372 0.959  17.571  -0.429
0.0372 1.251  16.548  -1.788
-0.6497 1.627  18.543  -2.034
0.4215 0.974  19.170  -1.705
0.0372 -11.212   0.623 -10.122
0.1166 -10.514   0.207  -9.412
0.0372 -9.585   0.728  -9.402
0.0372 -10.388  -0.818  -9.482
-0.6497 -11.219   0.398  -8.189
0.4215 -10.539   0.137  -7.541
0.0372 -8.951   6.098  -4.038
0.1166 -9.491   6.474  -3.147
0.0372 -9.824   5.636  -2.581
0.0372 -10.444   6.969  -3.431
-0.6497 -8.811   7.369  -2.377
0.4215 -8.620   6.943  -1.501
0.0372 -19.341   3.345 -14.109
0.1166 -19.476   3.530 -15.169
0.0372 -19.800   2.616 -15.621
0.0372 -18.499   3.753 -15.504
-0.6497 -20.386   4.571 -15.458
0.4215 -21.207   4.527 -14.954
0.0372 1.388   5.056 -14.332
0.1166 0.940   4.957 -13.308
0.0372 -0.078   4.681 -13.440
0.0372 1.124   5.855 -12.775
-0.6497 1.639   3.924 -12.604
0.4215 2.198   4.226 -11.868
0.0372 -3.266  11.654 -18.892
0.1166 -2.350  11.109 -18.764
0.0372 -2.523  10.071 -19.216
0.0372 -2.242  11.086 -17.692
-0.6497 -1.310  11.752 -19.327
0.4215 -0.664  11.095 -19.679
0.0372 -20.942  16.845  -3.348
0.1166 -20.515  15.849  -3.462
0.0372 -20.196  15.678  -4.515
0.0372 -21.299  15.159  -3.122
-0.6497 -19.395  15.711  -2.627
0.4215 -18.681  15.281  -3.143
0.0372 -8.274   9.567 -13.688
0.1166 -7.602   9.794 -14.555
0.0372 -6.652   9.236 -14.400
0.0372 -7.439  10.842 -14.659
-0.6497 -8.107   9.414 -15.814
0.4215 -8.746  10.104 -16.087
0.0372 -9.886   2.440 -22.099
0.1166 -9.241   2.260 -22.922
0.0372 -8.528   3.088 -23.047
0.0372 -9.836   2.192 -23.762
-0.6497 -8.367   1.121 -22.713
0.4215 -8.484   0.900 -21.751
0.0372 -13.057  13.162  -5.866
0.1166 -12.011  13.274  -5.506
0.0372 -11.493  13.934  -6.217
0.0372 -11.395  12.321  -5.580
-0.6497 -11.917  14.025  -4.329
0.4215 -12.601  14.679  -4.359
0.0372 6.216   8.840 -18.256
0.1166 5.601   9.734 -18.403
0.0372 5.471  10.133 -17.410
0.0372 4.736   9.438 -18.936
-0.6497 6.227  10.766 -19.194
0.4215 7.168  10.528 -19.246
0.0372 -9.028  -2.965 -27.478
0.1166 -7.918  -2.910 -27.397
0.0372 -7.356  -2.531 -28.292
0.0372 -7.520  -3.933 -27.366
-0.6497 -7.559  -2.210 -26.271
0.4215 -8.187  -1.470 -26.307
0.0372 -15.288   4.888  -6.003
0.1166 -15.279   3.932  -6.501
0.0372 -16.173   3.307  -6.515
0.0372 -14.603   3.199  -6.024
-0.6497 -14.832   4.130  -7.787
0.4215 -14.368   3.295  -8.085
0.0372 -9.345  13.164 -13.418
0.1166 -10.135  13.890 -13.103
0.0372 -11.091  13.303 -13.204
0.0372 -10.186  14.785 -13.682
-0.6497 -9.887  14.173 -11.781
0.4215 -9.558  15.051 -11.806
0.0372 1.162  19.397   0.801
0.1166 1.828  19.708   1.605
0.0372 1.190  20.059   2.327
0.0372 2.454  20.479   1.107
-0.6497 2.578  18.572   1.950
0.4215 3.163  18.308   1.192
0.0372 -14.329   3.312   0.698
0.1166 -15.104   4.036   0.954
0.0372 -15.896   3.619   1.584
0.0372 -15.550   4.435   0.025
-0.6497 -14.486   5.180   1.699
0.4215 -13.887   5.675   1.081
0.0372 -8.652  24.360  -8.376
0.1166 -8.578  23.490  -7.688
0.0372 -9.565  23.199  -7.260
0.0372 -7.889  23.829  -6.882
-0.6497 -7.973  22.314  -8.307
0.4215 -7.261  21.962  -7.738
0.0372 -0.077   7.444 -11.267
0.1166 -0.129   8.271 -10.569
0.0372 0.404   8.006  -9.679
0.0372 -1.170   8.431 -10.339
-0.6497 0.357   9.472 -11.062
0.4215 -0.243   9.971 -11.615
0.0372 3.565  18.772  -5.432
0.1166 2.795  18.004  -5.370
0.0372 3.040  17.339  -6.270
0.0372 1.737  18.302  -5.390
-0.6497 3.046  17.194  -4.266
0.4215 2.582  17.720  -3.589
0.0372 -9.428  12.769 -15.744
0.1166 -10.405  12.597 -16.266
0.0372 -10.328  13.059 -17.254
0.0372 -11.232  13.079 -15.736
-0.6497 -10.547  11.210 -16.305
0.4215 -11.442  10.871 -16.622
0.0372 -13.558  14.675   3.019
0.1166 -13.753  15.518   2.380
0.0372 -12.907  16.226   2.500
0.0372 -14.714  16.028   2.714
-0.6497 -13.968  15.095   1.009
0.4215 -13.117  14.826   0.624
0.0372 -13.502   6.197   6.875
0.1166 -14.027   7.187   6.861
0.0372 -13.176   7.921   6.852
0.0372 -14.586   7.198   7.802
-0.6497 -14.764   7.070   5.684
